VERSION .7
FIELDS x y z intensity
SIZE 4 4 4 4
TYPE F F F F
COUNT 1 1 1 1
WIDTH 1543
HEIGHT 1
VIEWPOINT 0 0 0 1 0 0 0
POINTS 1543
DATA ascii
-4.85886 -5.736 0.0961235 3
-0.311317 -5.71904 0.0410599 15
0.293791 -5.70429 0.0714467 12
0.704881 -5.71142 0.0865724 9
1.11689 -5.68654 0.100879 3
1.55096 -5.69457 0.109896 9
1.98792 -5.66059 0.118148 5
-4.26789 -6.23477 0.288685 10.2857
-3.96283 -6.47221 0.425074 1
-2.31095 -6.48994 0.474478 2
-1.86827 -6.26304 0.273687 5
-1.2994 -6.2068 0.32521 10
-0.778295 -6.1968 0.310748 11.75
-0.294286 -6.16859 0.314185 18
0.313136 -6.17802 0.28941 10
0.75228 -6.21605 0.300224 0
1.75643 -6.1461 0.345051 3.33333
2.29762 -6.13888 0.353338 3
2.75917 -6.19999 0.289586 2.4
3.05021 -6.36677 0.246326 1
-3.60661 -6.66826 0.212129 14
-3.04989 -6.84159 0.346945 21.75
-2.52932 -6.65398 0.168384 5
-2.44739 -6.6284 0.413286 4
3.40545 -6.63004 0.333952 0
3.70394 -6.83613 0.265339 1
-2.9299 -7.07082 0.427012 18
-2.32642 -7.0913 0.409197 1
3.96648 -7.00233 0.191569 1
4.48216 -7.37145 0.319845 2
4.6402 -7.46185 0.280615 1
-1.04727 -7.87302 0.424707 8
4.84034 -7.61011 0.231861 1
5.04825 -7.73164 0.284882 1
-6.64331 -9.39541 0.436098 1.5
-5.64197 -9.45797 0.386389 1
0.137309 -9.07824 0.384591 3
-5.68913 -9.74829 0.420929 1
0.904693 -9.80067 0.42149 1.5
-10.3431 -10.8053 0.510387 3
-5.5252 -10.6377 0.382077 1
1.73648 -10.6155 0.387067 2
-9.80879 -11.81 0.493186 7
-4.11776 -12.1413 0.35313 1
-3.42514 -12.5728 0.394097 2.66667
-2.65315 -13.0685 0.416556 3
-2.48741 -13.1554 0.337006 1
-3.98198 3.5806 0.0123735 1.33333
3.07432 3.77538 -0.00139451 9
-4.75654 3.1905 0.0102362 0
-3.94771 3.1576 0.031944 1.25
3.08061 3.30315 0.0378455 10
-5.08389 2.58314 0.0122014 0
-3.93458 2.90477 0.0259237 7
-1.21905 1.62175 -0.0641044 1.6
-0.828963 1.6087 -0.06709 1.71429
-1.1806 1.203 -0.0628821 1.05882
-0.901393 1.3656 -0.0652954 1.1875
-1.25223 0.763542 -0.0622012 0.0666667
-0.887655 0.916671 -0.0715411 1
-0.345624 0.636279 0.0239483 2
0.293966 0.640299 0.000934541 3.08333
0.528564 0.599823 -0.0454434 1.85714
-3.02962 0.221477 -0.00656796 4
-1.68195 0.220704 -0.057109 0.8
-1.38314 0.315313 -0.063019 0.75
0.7144 0.191206 -0.0396899 3.4
1.46246 0.113034 -0.0382099 2
1.67897 0.10633 -0.0449135 3.1
2.07979 0.163889 -0.0383675 2
2.88644 0.0467294 -0.022049 3.5
2.98828 0.0221809 0.00426745 3
-3.60137 -0.452121 -0.00195473 8
-2.05627 -0.448098 -0.0517554 1
-1.70604 -0.397039 -0.0393026 7.42857
-1.37858 -0.362067 -0.0619128 1.83333
0.628582 -0.259234 -0.0446865 2
1.39202 -0.290221 -0.053064 3.33333
1.69581 -0.239442 -0.0442662 2.43478
2.12521 -0.247638 -0.0389795 1
2.8592 -0.245221 -0.0209987 2.6
3.01703 -0.289775 0.00683075 3
-3.58445 -0.690212 -0.0247217 6.33333
-1.85492 -0.789048 -0.0226481 14.1429
-1.28775 -0.787652 -0.0644618 1.69565
-0.988476 -0.883368 -0.0552453 1
0.353546 -0.516133 -0.0482053 0
0.745946 -0.838387 -0.0583106 2
1.21746 -0.789821 -0.0486962 1.75
1.71257 -0.757584 -0.0449907 1.78947
2.11797 -0.651086 -0.0379634 0.833333
2.88091 -0.780321 -0.0191429 2.5
3.01707 -0.718301 0.00934696 1.5
-2.09248 -1.4046 -0.0243163 4.33333
-1.84675 -1.18931 -0.0461234 5.0625
-1.1728 -1.14295 -0.0640028 1.85714
-0.784056 -1.24337 -0.0650653 1.39024
-0.327066 -1.4357 -0.0693291 1.17647
0.299608 -1.3423 -0.0649579 1
0.689725 -1.27427 -0.0551265 1.5
1.20612 -1.24674 -0.0488402 1.83333
1.67669 -1.23955 -0.044467 1.55556
2.10589 -1.09589 -0.0390803 0
2.85134 -1.33675 -0.014698 1.5
2.99212 -1.16735 0.00635582 2
-3.57296 -2.01137 0.00983286 6
-1.61008 -1.74083 -0.0542237 1.125
-1.31397 -1.80188 -0.0551767 1.76923
-0.78519 -1.90755 -0.0526753 1.8
-0.231105 -1.65415 -0.0604266 1.75
0.26506 -1.80423 -0.0196641 5.05
0.707182 -1.7816 0.000964522 6.75
1.20274 -1.72169 -0.0413328 2.95238
1.66935 -1.7156 -0.0387136 2
1.99187 -1.71171 -0.0331299 1
-3.58019 -2.09078 -0.0164441 6
-1.73179 -2.16459 -0.0523365 4
-0.754469 -2.19182 -0.0499294 1.45455
-0.251369 -2.18919 -0.0250261 2.65217
0.1056 -2.06326 0.00562263 3.75
1.35483 -2.08232 -0.0134295 9
1.7599 -2.14476 -0.0325978 1
3.53754 -2.21648 -0.0121638 5
-4.87808 -4.90452 0.0139086 2
-0.940303 -5.81475 -0.00468755 3
3.6991 -43.7055 4.20442 15
1.31886 -44.6591 3.99442 15
1.6623 -44.7502 4.02655 16
1.08551 -44.714 3.49647 14
-6.15779 -43.8803 3.02159 18
-8.05839 -44.9347 3.20661 15
1.48128 -44.728 3.03746 25
8.01008 -24.5178 2.15313 13
1.53116 -36.8634 2.31171 10
-5.57276 -37.143 2.19884 9
-6.45728 -13.2467 1.55912 10
1.32365 -21.7734 1.5457 4
6.52972 -22.6612 1.61759 5
7.3837 -22.8309 1.78443 5
10.565 -2.35813 1.07 1
10.5843 -2.71399 1.11316 2
10.5982 -3.26805 1.07538 1.5
10.591 -3.76008 1.12625 2
10.5887 -4.82023 1.1554 2
-3.00112 -7.07834 1.08927 20
-0.915647 -7.51422 1.11818 3
-1.00486 -7.53233 1.06975 2
-0.935639 -7.53926 1.09686 12.3333
-0.57319 -11.7477 1.37715 2.5
-10.0899 -12.4797 1.11467 4
-7.93272 -13.537 1.50295 4
-6.57476 -13.2818 1.44264 2
4.63685 -13.0446 1.20018 5
10.9641 -17.5165 1.32213 2
6.7621 -20.4258 1.30296 4
8.3699 -20.426 1.25695 5
-5.00585 -21.5594 1.18311 8
1.11786 -21.7178 1.41781 5
-2.05831 -23.147 1.3468 5
-5.1239 3.6816 0.799486 1
-6.91155 3.06508 0.797601 0.5
-5.10188 3.29746 0.681174 3.125
3.06318 3.3277 0.534158 1
-6.89532 2.82338 0.650348 1
-5.11734 2.74237 0.636246 2.22222
3.2584 2.66718 0.591489 18.2857
3.46774 2.61878 0.607901 30
0.301596 1.19942 0.551046 0
0.673462 1.23516 0.594938 0.333333
0.762766 0.513525 0.550199 4.33333
-0.12866 -0.0147037 0.537995 0
0.0190442 0.0787213 0.537434 0
0.818288 0.257914 0.558985 4.28571
-0.139283 -0.0203753 0.543994 0
-2.08414 -0.656787 0.683428 9
-1.59498 -0.61579 0.587329 14.1667
-1.48024 -0.821891 0.575192 7.5
-2.59408 -1.8433 0.601886 0
3.80605 -1.86461 0.620506 18
3.82834 -2.27755 0.679766 18.6154
5.23442 -2.00793 0.575565 0
10.572 -2.46908 0.592137 2
3.83732 -2.7744 0.681412 15.3
3.85972 -3.26569 0.709597 11.6
10.6144 -3.24997 0.60148 2
3.87404 -3.76112 0.716797 8
3.86506 -4.20187 0.667097 9.33333
3.87595 -4.78695 0.680667 6.5
-9.60462 -7.4129 0.60817 2
-3.15385 -7.06249 0.952433 15.3333
-2.98355 -7.09119 0.97314 13
-0.892119 -7.46172 0.83396 6
-0.81905 -7.75584 0.771197 4
-10.3862 -9.20428 0.641773 3
-0.319461 -9.29547 0.572497 2.5
0.289274 -9.27512 0.624887 1.66667
1.05127 -9.93557 0.623543 1
-10.3221 -10.3723 0.638591 3.5
-10.1092 -11.7686 0.715781 4
-3.18578 -12.7631 0.543523 1
-7.89303 -13.4854 0.909018 4
-7.59374 -13.7504 0.827853 7
-3.49731 -14.0241 0.717525 4
3.48838 -13.8415 0.698039 2
-3.72512 -14.1409 0.651665 2
-10.0123 -14.5998 0.999405 2
-2.65874 -14.7266 0.652874 5.33333
6.71665 -20.4141 0.804599 6
8.35178 -20.3942 0.835431 5
-5.90337 6.0535 0.410135 4
-4.43404 4.84457 0.420505 14
-5.11916 3.65941 0.411635 2.25
3.06742 3.60942 0.315577 6.42857
-6.87981 3.05534 0.550531 1
-5.09659 3.21346 0.378138 3
-3.9498 3.16763 0.0730691 1
3.07444 3.21073 0.2903 7.63636
-6.91883 2.86369 0.469988 0.5
-5.09552 2.78461 0.3818 1.2
-3.92669 2.92494 0.0688297 2
3.15647 2.69857 0.2975 13.85
3.50659 2.53129 0.25731 9.5
-5.1448 2.40978 0.223657 0
3.16127 2.47359 0.212156 29.5
0.280702 1.13397 0.288926 5.05556
0.725183 1.18152 0.348723 7.75
1.22899 1.37559 0.138733 2
0.334581 0.667677 0.0862553 3.25
0.66315 0.594426 0.265248 2.53846
-3.02125 0.267918 0.176706 3.5
-0.123155 -0.00990326 0.511889 0
0.776019 0.246897 0.382459 3.4381
0.988284 0.190531 0.40928 3
3.31107 0.181898 0.0619029 0
3.48043 0.153669 0.0960901 0
8.06012 0.0537296 0.405971 5.5
-3.59919 -0.385556 0.0941541 7.66667
-1.69496 -0.503654 0.0985384 18.6667
-0.132967 -0.0219018 0.507376 0
3.35014 -0.157738 0.0699259 1.2
8.08836 -0.238666 0.404803 0.5
-3.58557 -0.750257 0.094843 10.3333
-2.04057 -0.891178 0.438792 23.5
-1.70317 -0.640591 0.324759 39.6552
-1.46848 -0.772957 0.26655 23.5882
3.3062 -0.739108 0.0638086 0
8.10855 -0.560128 0.443623 1
-3.58294 -1.02706 0.0691859 11
2.92052 -1.49779 0.234315 5.5
3.2381 -1.37132 0.136236 2.27273
3.75954 -1.41569 0.325118 0.4
-4.76658 -1.97677 0.182332 2
-3.583 -1.53422 0.156298 1
-2.5639 -1.57019 0.151232 3
-2.41862 -1.61663 0.0784371 7.5
0.421089 -1.96927 0.0426847 8.5
0.720857 -1.87617 0.0962987 7.78571
1.08107 -1.96705 0.08967 10.5
2.87138 -1.52716 0.0890049 11
3.22197 -1.51545 0.352915 4
3.73092 -1.78616 0.437115 13.7143
-21.1347 -2.54474 0.506606 4
-0.172556 -2.36117 0.0427322 4
0.247185 -2.16107 0.0666983 4.9
0.795182 -2.07184 0.212281 6.2
1.15254 -2.13515 0.185152 6
3.68416 -2.23034 0.338328 11.6923
-0.149008 -2.64114 0.180214 5.8
0.309599 -2.8933 0.121124 0.666667
0.780026 -2.88228 0.126279 1.85714
1.04872 -2.93366 0.126537 2
3.66684 -2.74593 0.280935 10.3333
-21.126 -3.14336 0.497099 4
-4.75613 -3.40254 0.261232 2
0.109871 -3.03174 0.127529 1
0.758192 -3.31711 0.163499 7.4
1.19846 -3.17989 0.139368 6.25
3.6974 -3.24021 0.335983 8.375
-21.2014 -4.00495 0.510289 4
-12.6359 -3.66022 0.586707 2
-4.7403 -3.84663 0.13583 2.5
3.70156 -3.73143 0.325568 10.625
-21.7723 -4.15984 0.620566 6
-4.87228 -4.52505 0.147175 4
3.7159 -4.26442 0.322512 11
3.70923 -4.72283 0.321464 5.4
-4.8525 -5.15596 0.127954 8
3.69437 -5.1587 0.244852 2.75
-4.79749 -5.86295 0.211928 11
-1.07993 -5.90482 0.0346778 9
-0.639247 -5.72859 0.0747926 17
-0.230124 -5.72642 0.0987402 14
0.171953 -5.71526 0.11874 13
0.581031 -5.71008 0.135693 10
1.20205 -5.67977 0.155627 4.5
1.85513 -5.68136 0.16834 4
-4.38702 -6.17775 0.21736 14.5
-3.95565 -6.46298 0.222231 14.5
-2.13493 -6.40123 0.508269 2
-1.85138 -6.28291 0.385583 5.25
-1.29695 -6.20977 0.304174 14.5
-0.740249 -6.20593 0.351118 9.33333
-0.285795 -6.18413 0.312782 26.3333
0.404454 -6.15973 0.305464 6
1.78141 -6.14054 0.358807 4.75
2.25156 -6.13924 0.368981 3.16667
2.73101 -6.17594 0.339074 3
3.07492 -6.4099 0.341943 1
-3.52984 -6.70308 0.138719 9
-3.46494 -6.70821 0.320394 7
-2.74187 -6.66202 0.364542 7
-2.43295 -6.80255 0.257176 4.5
3.28946 -6.54461 0.198567 1
3.74698 -6.85455 0.320528 1
-2.93858 -7.07983 0.513302 22.6667
-0.87123 -7.39677 0.446479 9
4.20367 -7.15242 0.251987 1
4.82078 -7.58618 0.307804 1.5
5.21961 -7.85234 0.214374 1
5.55971 -8.06271 0.415407 1
-5.66481 -9.50505 0.500178 1
-0.324161 -9.29373 0.432519 1
0.323627 -9.22928 0.423435 2
-6.67449 -9.59705 0.510971 2
-5.65357 -9.66773 0.446686 1.5
1.07057 -9.9521 0.480462 1
1.17868 -10.0408 0.442704 2
1.93688 -10.8085 0.430698 1
-3.16555 -12.7102 0.430366 3
-2.48922 -13.2285 0.396007 1
-2.18451 -13.3659 0.43237 5
-3.98936 3.63826 0.000773251 1.5
-4.7314 3.04369 -0.00101238 1
-3.95453 3.28197 -0.0169697 1.25
3.07974 3.38778 0.00728536 11
-5.10813 2.72743 0.00716794 0
-4.10471 2.80655 -0.00650668 0
-3.95132 2.8768 -0.00344956 7
3.06655 2.6869 -0.0540153 0
3.17952 2.39919 -0.0320745 8
-1.19251 1.62168 -0.0752997 1.4
-0.8077 1.60314 -0.0726897 1.42857
-1.19702 1.19415 -0.0748383 1
-0.891063 1.33015 -0.0758631 1.05
-1.22789 0.765549 -0.0693409 0.0526316
-0.852643 0.927668 -0.069913 2
-0.324606 0.620862 0.0172635 4
0.29658 0.635652 -0.0183519 3
0.566848 0.619071 -0.0142108 1.27273
-3.02853 0.277494 0.00604385 3
-1.61348 0.21237 -0.0591542 0.333333
-1.413 0.250981 -0.0647576 0.7
0.629775 0.324676 -0.033017 2.8125
1.46753 0.139806 -0.0618228 1
1.70103 0.120418 -0.0473496 2.91667
2.1578 0.223112 -0.0399988 1
2.90465 0.260714 -0.027643 1.5
2.99297 0.170715 -0.00330657 3
-3.59258 -0.36608 -0.0107534 6.33333
-2.10666 -0.464661 -0.0490101 1
-1.63534 -0.396635 -0.034389 3.75
-1.4312 -0.374121 -0.0628931 1.57143
0.647871 -0.257131 -0.04857 2.17647
1.41583 -0.292532 -0.0550376 2.66667
1.7053 -0.250878 -0.0458567 2.4
2.1763 -0.281836 -0.0408293 0.666667
2.83594 -0.245143 -0.0365451 2.5
3.00146 -0.215053 0.00101465 3.25
-3.59049 -0.731577 -0.0104343 8.83333
-2.11858 -0.74659 -0.0529521 6.25
-1.83614 -0.751576 -0.0215057 12.7778
-1.29098 -0.781747 -0.0630414 2.92593
-0.99476 -0.932103 -0.0707281 0.5
0.557348 -0.673415 -0.0569896 2
1.23706 -0.800123 -0.0509079 2.0625
1.72032 -0.788955 -0.0451013 1.75
2.08856 -0.653872 -0.0413284 0.666667
2.91417 -0.733042 -0.0129871 1.5
3.02231 -0.723699 0.00490975 2
-1.81389 -1.2455 -0.05136 1.2
-1.16547 -1.14261 -0.0597289 1.5
-0.779249 -1.26774 -0.0577985 1.51351
-0.318805 -1.4543 -0.0608296 1.61111
0.259134 -1.40399 -0.0606536 1
0.729257 -1.26891 -0.0520111 1.6
1.22918 -1.26589 -0.0457911 1.75
1.64928 -1.23564 -0.043093 1.5
2.17112 -1.34708 -0.0378175 0.333333
2.88056 -1.26039 -0.0159414 1.5
2.99629 -1.16945 0.00459129 0
-1.60275 -1.77978 -0.0497537 0.833333
-1.32224 -1.80196 -0.0513557 1.5
-0.787393 -1.90035 -0.0451993 1.8
-0.247924 -1.65277 -0.0566984 1.2
0.257899 -1.77036 -0.0207391 4.05263
0.740914 -1.77144 -0.00600749 7.35714
1.22128 -1.71608 -0.0368241 2.85
1.71662 -1.72123 -0.0367668 2
2.13672 -1.7077 -0.0311537 0
2.85496 -1.58035 -0.00643194 4.5
-1.36644 -2.02128 -0.0443417 3
-0.753253 -2.17921 -0.0425524 1.33333
-0.244031 -2.20966 -0.0169117 2.9
0.108542 -2.05764 0.00770718 4.33333
1.34332 -2.06008 -0.0148243 6.5
1.74401 -2.19571 -0.0252598 1
3.53387 -2.03985 0.00141752 9
-0.563242 -2.60716 -0.0397665 1
-0.370217 -2.57864 -0.0166828 5
-3.56865 -3.09508 -0.0235522 0
3.55933 -3.32698 0.0061751 6
-4.86055 -4.56583 0.0472491 4
-0.541589 -5.75913 -0.011757 0
-0.133648 -5.70596 0.00629187 1
0.2634 -5.70379 0.0152999 3
0.665386 -5.68262 0.0233186 3
3.81346 -43.6573 4.28511 15
1.44617 -44.7012 4.09465 14
1.17519 -44.726 3.62212 13
-7.9625 -44.9781 3.29166 20
1.57159 -44.7125 3.17657 24
-2.67283 -23.2169 2.05792 4
8.06457 -24.4461 2.25137 15
0.648763 -36.9056 2.26488 11
1.00401 -36.8533 2.51427 15
1.60568 -36.9031 2.43852 11
3.06785 -36.7874 2.20516 15.5
3.59039 -36.7685 2.47127 10
9.87035 -20.6174 1.55966 6
10.1662 -20.6558 1.9097 5
7.38281 -22.6735 1.88436 6
-2.54963 -23.2197 1.88801 5
7.52747 -24.098 1.77849 14
-7.89336 -29.3659 1.8226 6
10.5803 -3.0395 1.1813 2
10.6236 -3.8342 1.22784 2
10.6136 -3.93814 1.18831 2
10.6497 -4.79052 1.20815 1.66667
-0.225464 -6.80485 1.10056 150
-2.94564 -7.13483 1.17849 1
-1.03012 -10.2414 1.27298 5.5
-0.546564 -11.272 1.38677 3
-9.72305 -12.0042 1.07619 2
-7.94401 -13.403 1.41546 2.5
-7.81259 -13.4009 1.48139 3
4.85163 -12.9957 1.13558 3
6.82096 -20.4567 1.40812 3
8.40543 -20.3872 1.36892 5
10.0441 -20.5789 1.45385 9
10.1839 -20.5368 1.34201 5
-4.42457 -21.6259 1.18728 7
-5.13979 3.59947 0.699373 1.5
-6.91311 3.08253 0.70568 1
-5.11901 3.19681 0.639741 2.75
-6.90898 2.86372 0.569111 1
-5.12007 2.71766 0.611866 1.875
3.27159 2.69741 0.635808 12.1667
3.48774 2.61477 0.608421 21.6667
-12.6638 1.50808 0.634727 1
0.452319 1.2315 0.605976 1
0.74666 1.2512 0.59781 2.5
0.766434 0.517711 0.550492 4
0.806151 0.266209 0.557588 4.18518
-0.13458 -0.0265449 0.53762 0
8.18391 -0.213539 0.620273 0
-1.61811 -0.656435 0.54684 14.75
-1.43993 -0.866248 0.555872 10.75
3.79354 -1.76883 0.608254 17.5
3.8397 -2.26003 0.689265 19.4375
5.179 -1.97724 0.609272 0
3.87051 -2.80619 0.736345 14.6364
3.87841 -3.32592 0.7409 10.4444
10.6337 -3.22916 0.675885 2
-10.9115 -3.82977 0.790947 2.66667
3.89819 -3.83825 0.730853 7.28571
3.89747 -4.41251 0.698065 10
-21.7927 -4.77696 0.850963 4
3.91275 -5.08761 0.703374 8
-2.27059 -6.51003 0.530801 2
-3.13752 -7.02609 0.675855 12
-2.38598 -6.58109 0.559688 1
-2.98311 -7.08995 0.963349 30.6667
-2.93107 -7.17188 1.00434 1
-0.032733 -7.13206 0.534034 1
0.0138643 -9.08109 0.765062 2
0.129024 -9.08107 0.629193 5
-6.58715 -9.73384 0.529697 2
0.814976 -9.61978 0.654113 2
1.63258 -10.4473 0.684256 3
-10.2689 -10.9853 0.629244 2
-9.74101 -11.9575 0.670155 8
-9.89406 -12.5913 0.555651 6
-3.93117 -14.5116 0.564942 2
-3.06287 -14.2819 0.697274 6
-2.84595 -14.4256 0.597158 5
6.25817 -20.4201 0.913071 4
4.73289 -20.5012 0.873351 5
-6.16955 -21.3597 0.764169 4.5
-6.08852 5.90076 0.336973 2
-4.44867 4.81139 0.48542 5
-5.12981 3.49871 0.378542 3
-0.524081 3.82409 0.209638 0
3.04081 3.73806 0.248856 6.2
-6.94065 2.96349 0.364034 1
-5.11054 3.11143 0.3342 2.66667
-3.98674 3.19271 0.0473143 0.5
3.05144 3.2983 0.28749 8.18182
-6.92657 2.70346 0.374026 0.333333
-5.11215 2.65057 0.341661 1.5
3.10083 2.74263 0.320312 11.8421
3.47145 2.57136 0.31905 20.5
3.15918 2.45933 0.159764 18
-12.8017 1.41395 0.467508 1
0.28471 1.13261 0.326007 3.93333
0.694852 1.18018 0.345771 7
1.21419 1.24314 0.116614 3
0.312626 0.660476 0.0904987 3.57143
0.652223 0.613941 0.204573 1.83333
-3.02053 0.200359 0.167575 3.33333
-0.130016 -0.0193092 0.516196 0
0.781749 0.252518 0.402791 3.50495
0.983704 0.19357 0.461851 4
3.23281 0.104913 0.0606892 2.33333
8.03841 0.209956 0.253869 7
-3.58693 -0.378796 0.068274 9
-0.131303 -0.0267943 0.495381 0
3.31993 -0.317697 0.079051 1.2
8.10481 -0.252828 0.456305 1
-3.58245 -0.757275 0.0631353 9.75
-2.17769 -1.0185 0.276692 19
-1.63725 -0.649549 0.286532 23.7391
-1.44753 -0.788456 0.221584 23.2308
3.31013 -0.751291 0.0799209 0
8.12371 -0.826032 0.480944 1
-4.77295 -1.5375 0.194785 12
-3.60157 -1.13045 0.105968 5.5
-2.20261 -1.05807 0.257056 13.25
2.87788 -1.49369 0.212369 11
3.26737 -1.366 0.176753 1.81818
3.69145 -1.39527 0.288128 1
-2.64653 -1.78998 0.129386 0.8
-2.50644 -1.66862 0.0335085 4
0.708817 -1.86358 0.0767255 6.33333
2.88754 -1.54387 0.0943291 9.33333
3.01078 -1.54417 0.308215 5
3.71645 -1.8223 0.428648 16.1429
-0.110648 -2.41506 0.184056 9
0.310043 -2.06944 0.0434179 5
0.866522 -2.05649 0.233691 6.5
1.1289 -2.12668 0.20904 5.8
3.69864 -2.24007 0.36248 10.7273
-21.1046 -3.09262 0.364235 4
-0.0984505 -2.72711 0.229785 2
0.266171 -2.8573 0.123301 1.83333
0.794683 -2.82094 0.130738 2.16667
3.68717 -2.74337 0.304093 10.3077
-4.72624 -3.53379 0.178129 2
0.378318 -3.16411 0.132361 2
0.790697 -3.24583 0.163476 3
1.19252 -3.20493 0.207218 8.66667
3.70767 -3.26629 0.32309 8.55556
-10.4881 -3.64647 0.390696 4
3.72741 -3.75002 0.349038 10.5
-21.223 -4.6334 0.406603 3.5
-4.84965 -4.17233 0.117501 3
3.76072 -4.18907 0.400979 10.2
-4.8392 -4.76326 0.0996938 4
3.72872 -4.68252 0.306891 6.28571
-4.81216 -5.41805 0.0799252 6
3.73887 -5.15903 0.290152 3
-4.62293 -5.99881 0.173824 16
-1.06731 -5.93619 0.047009 9
-0.623134 -5.74109 0.090465 15
-0.215319 -5.72234 0.117925 16
0.233677 -5.71571 0.0884373 12.5
0.759543 -5.70337 0.127034 8.33333
1.26364 -5.71024 0.12011 1
1.86627 -5.67718 0.201289 2
-4.19724 -6.2899 0.18291 17.5
-3.77284 -6.53854 0.0984819 12
-2.12014 -6.44516 0.490957 3.5
-1.6938 -6.27401 0.340164 5.66667
-1.1104 -6.218 0.290995 14.5
-0.668987 -6.20744 0.303008 12.5
-0.224504 -6.19398 0.355034 9.66667
0.194182 -6.16999 0.324007 56.5
0.805189 -6.16588 0.30872 3
1.46951 -6.14527 0.328491 4
1.81078 -6.14502 0.379135 4.16667
2.33286 -6.12101 0.372983 4.4
2.6368 -6.12303 0.374349 8.5
3.12813 -6.39729 0.301462 1.5
-3.7426 -6.5882 0.285533 15
-3.15983 -6.87256 0.362584 9
-2.71707 -6.76038 0.352924 15.25
-2.31066 -6.9941 0.15433 5
3.39506 -6.5781 0.334369 1
3.97557 -6.95898 0.320856 1
-2.85717 -7.09746 0.490281 9
-2.26398 -7.08663 0.303413 2
-0.127511 -7.03396 0.424894 14
4.28907 -7.16657 0.25468 1.25
5.2207 -7.78507 0.337028 1
5.63234 -8.05414 0.224935 1
-6.59427 -9.37992 0.413598 2
-5.62359 -9.30932 0.447688 1.33333
0.240663 -9.13308 0.491334 3
0.631009 -9.49107 0.502531 1
-5.57585 -9.65155 0.511829 2
0.944474 -9.76164 0.488297 1
-10.3443 -10.262 0.458944 2
1.40691 -10.233 0.462665 2
1.77177 -10.5511 0.484442 3
-3.11751 -12.7466 0.421666 3
-2.42436 -13.1667 0.471319 6
-0.595815 -14.088 0.46964 2
-22.5895 20.6723 -0.175519 6
-4.00393 3.53076 -0.0371282 1.33333
3.05294 3.54463 -0.0156054 10
-4.757 3.05861 0.00797009 1.5
-3.9596 3.09866 -0.0349831 1
3.06489 3.10973 0.0245415 11
-5.1258 2.71248 0.0160971 0
-4.80396 2.74041 -0.0535354 0
-3.97065 2.87607 -0.0721033 4
-1.10451 2.3078 -0.0986552 2
3.07096 2.45886 -0.0382276 1
-0.92595 1.59047 -0.0852621 1.8
-1.17072 1.14653 -0.0846396 0.888889
-0.828354 1.32766 -0.084945 1.41667
-1.25271 0.753067 -0.0790815 0.333333
-0.318674 0.622098 -0.0102999 2.5
0.299934 0.626867 -0.0234299 2.91667
0.547166 0.600586 -0.0153991 2.41667
-1.62638 0.184098 -0.0753394 1
-1.38421 0.220942 -0.0759122 1
0.659825 0.317472 -0.0223823 2.36842
1.42187 0.0357332 -0.0499797 3
1.70266 0.071154 -0.0414538 3
2.09311 0.168634 -0.0352185 1.66667
2.95166 0.200646 -0.00366914 3
-3.58535 -0.413251 -0.0375732 7.33333
-2.13065 -0.432047 -0.0767202 0.666667
-1.73622 -0.436488 -0.0662989 4.5
-1.37015 -0.414392 -0.0820244 1.88889
0.625075 -0.273605 -0.0506334 3.25
1.28668 -0.294011 -0.0513458 3
1.73001 -0.274674 -0.0402125 2.21053
2.15705 -0.260355 -0.034339 1.11111
2.8717 -0.201112 -0.015639 1.66667
2.98635 -0.311056 0.00902903 3
-3.58398 -0.779419 -0.0368037 8.16667
-2.14273 -0.750166 -0.0702991 1.5
-1.73666 -0.725942 -0.0494105 7.66667
-1.27899 -0.772722 -0.0786141 2.88889
-0.915444 -1.00481 -0.084007 0.5
0.621065 -0.754412 -0.0492785 0.714286
1.23321 -0.742905 -0.0447385 1.66667
1.7528 -0.765645 -0.0370131 1.57143
2.14441 -0.64538 -0.0331488 1
2.8494 -0.694338 -0.0185118 1.5
2.98725 -0.735562 0.0131622 2.5
-3.56841 -1.13611 -0.00135475 9.33333
-2.15094 -1.22224 -0.0266584 2
-1.68592 -1.24741 -0.0668728 1.77778
-1.27013 -1.28423 -0.0653709 1.4
-0.774134 -1.21861 -0.0718868 1.35294
-0.400351 -1.37613 -0.0742034 0.933333
0.274016 -1.37786 -0.0594639 1.2
0.689388 -1.23146 -0.0540772 1.52941
1.34584 -1.32664 -0.0387572 1.61538
1.67077 -1.21068 -0.0360433 1.72222
2.1046 -1.13044 -0.0317503 1
2.95681 -1.17736 0.0132643 3
-1.59406 -1.72849 -0.0583459 1.33333
-1.24064 -1.73353 -0.0614765 1.375
-0.809605 -1.92494 -0.054223 1.52941
-0.290292 -1.99296 -0.0484057 1.875
0.286015 -1.93492 -0.00403863 6.15
0.739914 -1.78251 -0.000846744 7.22727
1.2131 -1.68694 -0.0312269 2.56522
1.7577 -1.78675 -0.0263506 2
2.08252 -1.61416 -0.0206204 0
2.88837 -1.511 0.0147868 9
-1.56586 -2.14991 -0.0501789 3
-1.12139 -2.08983 -0.053681 1
-0.709465 -2.12594 -0.0474825 1.5
-0.249009 -2.1377 -0.0283858 2.85
0.0867979 -2.07276 0.00105351 4.14286
1.50301 -2.1055 -0.0261483 4
-3.54487 -2.72432 0.00335562 0
-4.84632 -4.19323 0.0195501 3
-0.522175 -5.72619 0.00957608 2
-0.11833 -5.70947 0.0270322 5
-8.09616 -44.9545 3.64828 18
1.84403 -44.6829 3.59693 13
2.28899 -44.7272 3.10732 17.5
1.56087 -36.8035 2.29736 6
2.14451 -36.8499 2.39543 13
-5.87569 -15.0317 1.54286 2
7.50303 -23.1353 1.60002 5
6.46813 -24.3375 1.93346 6
7.56818 -24.0163 1.68662 6
8.36866 -24.4794 1.94691 7
8.19266 -24.5551 1.59724 6
10.5874 -2.93482 1.09119 2
10.5952 -3.74287 1.11815 3
10.6281 -4.60485 1.15189 2
0.585736 -5.88127 1.02247 2
-1.02118 -9.25447 1.19635 15.5
-0.869743 -9.33602 1.18365 10
-8.26928 -12.3062 1.30752 5.28571
-9.90252 -12.6352 1.10539 3.5
4.48152 -13.0818 1.09687 4
8.22209 -20.39 0.963097 4
0.69897 -21.772 1.43656 5
-5.10388 3.57901 0.722949 2
-6.91308 3.16327 0.659432 0.666667
-5.09913 3.21069 0.686372 2.71429
-6.87926 2.91101 0.811723 0.5
-5.0864 2.76122 0.662324 1.5
3.21626 2.66189 0.639569 19.3333
0.620117 1.24046 0.608079 0
0.754389 0.498516 0.561769 5
0.842625 0.215971 0.552 4.64706
8.16636 0.19901 0.540592 2
8.16325 -0.196721 0.568296 0.5
-1.62697 -0.635813 0.606619 8.6
-1.49244 -0.661171 0.683328 1
-2.76315 -1.75811 0.594744 4
3.82063 -1.87622 0.623132 11.5
5.45067 -1.98431 0.595387 1
3.81966 -2.21673 0.654419 20.4
10.6339 -2.29549 0.628725 1
3.83782 -2.74491 0.671404 15.7778
3.8504 -3.17969 0.685735 13.4444
10.6294 -3.05953 0.638838 1
-10.9335 -3.57831 0.850669 6
3.85417 -3.66292 0.683304 10.25
3.85187 -4.20634 0.645548 8.8
3.87049 -4.86633 0.663467 5.2
0.662209 -5.88616 0.930866 6.625
-2.95017 -7.12158 0.743893 14
-1.06081 -9.25972 0.85342 8
-0.931076 -9.32619 1.01183 14
0.216724 -9.24757 0.711341 2
0.953309 -9.82878 0.605646 1
7.20603 -10.4381 0.500183 1
-10.0314 -12.4944 0.851657 6
-9.98758 -12.6168 0.656138 4
-3.52924 -13.9846 0.59986 3
3.39912 -13.9191 0.731023 2
-3.706 -14.0939 0.867006 2
-2.7123 -14.7443 0.736741 2.5
6.57793 -20.4172 0.89229 5
-5.92825 6.02709 0.410411 5
-6.00609 5.92606 0.352187 3
-4.78968 5.57175 0.431569 10
-5.11015 3.53792 0.393925 3
-3.98578 3.71051 0.0638905 0
3.06765 3.63765 0.293586 7.5
-6.89671 3.25362 0.5546 1
-5.09823 3.18283 0.372717 2.83333
-3.9861 3.23342 0.0987472 0
3.0783 3.23287 0.277489 7.83333
-6.88876 2.90181 0.49357 1
-5.08736 2.75725 0.282696 1.6
3.14773 2.72188 0.317446 14.6667
3.48329 2.52479 0.0981966 7
3.14857 2.46683 0.125294 23.75
-12.7434 1.52377 0.475194 1
-0.245604 1.6981 0.129307 1
0.307691 1.14756 0.348186 3.66667
0.665381 1.16306 0.339378 5.11111
1.19721 1.25014 0.131121 3.16667
0.306459 0.668945 0.105116 3
0.656557 0.583608 0.289645 2.53333
-3.01624 0.236809 0.114458 4.33333
-0.135079 -0.0122675 0.524322 0
0.76831 0.275385 0.393432 3.51064
0.98414 0.193463 0.486223 4
3.3138 0.121741 0.0668334 0.25
8.0812 0.019296 0.305432 1
-3.59753 -0.421405 0.0863073 8
-0.122467 -0.0197589 0.502027 0
3.23689 -0.284755 0.0526338 0.857143
3.48391 -0.11422 0.092858 0
8.08169 -0.0671357 0.370008 1
-3.5944 -0.742461 0.111843 5.66667
-2.19855 -0.96371 0.197627 24.8333
-1.63178 -0.621892 0.315451 30.8
-1.45591 -0.768335 0.254517 21.2941
3.22024 -0.720085 0.0523285 0.375
8.09247 -0.586164 0.395194 0
-3.57604 -1.07782 0.0900098 8
-2.1934 -1.02252 0.340507 17
2.88814 -1.48121 0.0288588 3
3.20113 -1.36272 0.170619 2.6
3.69274 -1.41879 0.269641 0
-3.56596 -1.7054 0.100276 8
-2.67222 -1.7041 0.25696 7.55556
-2.49886 -1.75803 0.0704097 4.33333
0.733934 -1.92653 0.115012 8.92308
1.13068 -1.94181 0.0440252 6
2.90358 -1.55842 0.187707 5
3.46655 -1.52005 0.417508 4
3.68443 -1.80206 0.405168 14.8
-21.1037 -2.43041 0.43959 3
-0.0862967 -2.43667 0.172689 7.75
0.270645 -2.08762 0.0439394 4.5
0.843731 -2.04601 0.221127 7.14286
1.16975 -2.13969 0.174129 5.57143
3.67058 -2.25346 0.306835 12.0833
-0.220019 -2.62248 0.175661 8.33333
0.260685 -2.71692 0.115688 2.25
0.690781 -2.78582 0.123635 1.81818
3.66619 -2.73096 0.281002 10.5
-4.73924 -3.39652 0.238368 2
0.183489 -3.03147 0.12155 2
0.84717 -3.32906 0.181075 10
1.18497 -3.13491 0.15896 5
3.6743 -3.19313 0.263628 7.88889
-10.5277 -3.56007 0.481391 5
-4.734 -3.8163 0.122909 3
3.68801 -3.71489 0.28725 10.5714
-4.85792 -4.48663 0.090652 4
3.69548 -4.23267 0.285408 9.33333
3.67302 -4.73144 0.225216 5
-4.84593 -5.11754 0.0680505 8
3.70387 -5.12612 0.275198 3.66667
-4.74013 -5.90746 0.206255 15.5
0.808369 -5.88926 0.28636 6.66667
-4.53797 -6.05552 0.33275 19
-4.23875 -6.25009 0.257315 17.1667
-3.95324 -6.4691 0.252803 10
-1.75401 -6.25085 0.326206 4.33333
-1.2823 -6.20549 0.331962 8
-0.794897 -6.19719 0.337201 8.85714
-0.263506 -6.18053 0.29828 11.4286
0.319258 -6.16496 0.285619 31
1.28955 -6.16 0.272141 3.33333
1.80391 -6.13289 0.329296 4.2
2.28027 -6.13051 0.318359 4
2.76543 -6.19278 0.303126 2.75
3.11313 -6.41719 0.29597 1
-3.69113 -6.61954 0.268665 15.2
-3.28645 -6.72151 0.335942 8.16667
-2.80654 -6.71792 0.311959 10.8333
-2.41596 -6.81736 0.308225 4
3.36245 -6.57845 0.214722 1
3.70234 -6.81918 0.260728 1
-2.27842 -7.09574 0.369528 5
4.17584 -7.126 0.250292 1
4.64841 -7.4511 0.259424 1
4.84071 -7.58337 0.217472 2
5.1587 -7.79818 0.152407 1.5
5.65656 -8.12349 0.223682 1
-6.66547 -9.51736 0.411078 1
-1.07372 -9.31614 0.501356 2
0.343884 -9.26746 0.432434 1.5
1.10114 -9.95486 0.421869 1
1.98209 -10.851 0.426904 1
-3.27828 -12.6281 0.38347 3
-2.45924 -13.1995 0.433482 6
-3.97679 3.62064 -0.0352199 1
3.07036 3.80963 0.025599 8
-4.72168 3.02907 0.0227301 1
-3.95397 3.25534 -0.0258386 0.8
3.08713 3.37161 -0.0247732 10
-5.08988 2.77589 0.0153 0
-3.96438 2.8697 -0.0471159 7
3.08663 2.95051 0.0141891 10
3.47702 2.53076 0.0188847 11
-1.2847 1.57614 -0.0747107 2
-0.909209 1.64266 -0.073155 1.8
-1.16833 1.1897 -0.0700344 1.33333
-0.840265 1.35297 -0.0764084 1.31579
-1.22375 0.805899 -0.0679516 0.230769
-1.00841 0.724509 -0.0705879 0
-0.32366 0.584505 0.0194206 1.5
0.312052 0.636363 -0.0194682 2.8
0.570208 0.623447 -0.0156916 2.1
-3.01449 0.196822 -0.00456357 2
-1.66538 0.206647 -0.0645375 1
-1.2953 0.343392 -0.0658913 0.714286
0.640669 0.322373 -0.0358522 3.17647
1.42873 0.116337 -0.0289372 2
1.63984 0.09543 -0.0486113 3.66667
2.11185 0.173914 -0.039955 1.83333
2.88819 0.140923 -0.0186421 3
3.08807 0.0684648 0.0250309 3
-3.59082 -0.499569 -0.0315306 8
-1.78389 -0.432378 -0.0560302 3
-1.30338 -0.357875 -0.0678549 2.125
0.619262 -0.26375 -0.0480587 3.1875
1.33462 -0.282084 -0.0527539 2.5
1.70695 -0.273714 -0.0446211 2.47826
2.13924 -0.183898 -0.0397714 1.44444
2.84888 -0.322822 -0.0189676 2
-3.57738 -0.82031 -0.0041827 9.8
-2.1197 -0.791987 -0.0335517 4.33333
-1.73628 -0.720148 -0.0401805 5.83333
-1.2684 -0.762735 -0.0632078 3.5
-0.9758 -0.941426 -0.0741794 0.8
0.642586 -0.668807 -0.0551713 2
1.2743 -0.743315 -0.0473704 1.83333
1.7209 -0.765434 -0.0435607 1.85
2.04023 -0.758639 -0.0390453 1
2.9174 -0.779683 -0.00783956 2.66667
-2.19066 -1.0315 -0.0545802 0
-1.69814 -1.23546 -0.0580065 1.45
-1.33512 -1.33166 -0.0616773 1.57143
-0.775389 -1.19512 -0.0698214 1.31818
-0.369489 -1.35681 -0.0723044 0.785714
0.299689 -1.37169 -0.0616275 1.15385
0.720223 -1.22216 -0.0585873 1.41176
1.29278 -1.27022 -0.0456779 1.88235
1.65736 -1.21495 -0.0435341 1.53333
2.12996 -1.18934 -0.0433701 1
2.91 -1.37265 -0.00906974 3.33333
3.03351 -1.19498 0.0172975 2.33333
-1.6024 -1.72209 -0.0541948 2
-1.25434 -1.72698 -0.0562913 1.72
-0.791717 -1.90257 -0.0508341 1.6
-0.340682 -1.93411 -0.0490131 1.8
0.257354 -1.91899 -0.0122292 5.85714
0.713604 -1.76422 -0.00982368 6.04348
1.17988 -1.67627 -0.0401542 2.65
1.79437 -1.73806 -0.036015 1.6
2.09862 -1.68647 -0.0324672 0
2.78198 -1.78544 -0.0185469 0
3.55575 -1.99677 -0.00589347 0
-1.56224 -2.08047 -0.0552088 3
-0.750813 -2.12128 -0.0484034 1.5
-0.259791 -2.12165 -0.0341573 2.47826
0.0986151 -2.0668 0.00650698 4
1.45707 -2.12359 -0.0224613 7
1.64482 -2.05696 -0.0309035 1
-3.56281 -2.74222 0.0287061 0
-4.74092 -3.62508 0.0353525 1
3.54781 -3.53483 0.00543594 0
-4.88381 -4.32841 -0.0199208 0
2.84721 -43.6587 3.74778 16
2.2311 -44.6341 3.54019 16
2.61209 -43.7679 2.93898 17
2.48318 -36.8332 2.22357 16
-5.28015 -37.0826 2.178 11
4.67347 -13.0341 1.48643 7
-6.11335 -15.7485 1.55044 8
1.49161 -21.7209 1.44951 8
12.0315 -22.753 1.44955 5
8.40073 -24.4847 1.71349 6
10.5862 -1.97222 1.09497 1
10.5791 -2.73935 1.11251 2
10.6152 -3.54834 1.13672 2
-3.23573 -7.08489 1.16218 1
-0.834741 -9.42192 1.25036 3
-8.58266 -11.657 1.21642 1
4.73436 -13.0392 1.20918 4
-4.90315 -21.6284 1.35852 4
1.24981 -21.8218 1.41217 4
12.1695 -22.6028 1.29682 5
-4.41719 4.86436 0.588652 1
-5.1101 3.60746 0.679676 2.5
-6.89657 3.02992 0.649891 1
-5.0913 3.16836 0.679782 3
-6.89695 2.86993 0.809577 0.666667
-5.09258 2.70087 0.67415 1.5
3.29895 2.6346 0.657874 13.75
-5.09643 2.45513 0.77611 0
0.643728 1.23261 0.621343 0
0.741186 0.498159 0.560938 5
0.839169 0.214317 0.558775 4.33333
8.18423 0.109755 0.56584 1
-0.12557 -0.0234665 0.543756 0.333333
8.16757 -0.106722 0.547769 1
-1.5684 -0.691321 0.589734 15.1667
8.18487 -0.598101 0.537455 0
-2.03619 -1.27195 0.601324 15
3.81848 -1.87121 0.620717 15.3333
5.03736 -1.94733 0.54277 0
5.51519 -1.90448 0.531493 0
3.81988 -2.2559 0.65297 16.3636
3.8348 -2.68434 0.658672 16.9
10.1563 -2.63504 0.68451 1
-10.942 -3.50811 0.79362 6
3.84018 -3.19512 0.650739 13.5455
10.6232 -3.23469 0.5502 2
3.8643 -3.66855 0.686174 10.1667
3.86607 -4.12688 0.649073 8
1.25825 -4.78722 0.769988 6.85714
3.88396 -4.64712 0.683997 3.8
1.02404 -5.06447 0.589609 2
3.82026 -5.17476 0.512739 2
-3.20831 -7.06323 0.893435 3.8
-0.097776 -8.66299 0.813806 8.4
-10.3889 -9.13065 0.642825 2.5
0.564189 -9.42515 0.568152 2
-10.3403 -10.4328 0.580222 4
1.5563 -10.5657 0.844003 1
-8.69941 -11.6617 1.00966 3
4.66196 -12.9649 0.758797 5
4.82237 -13.0096 0.82311 2
-3.29024 -14.1604 0.723417 4
-6.50678 -21.3803 0.679368 4
-5.89578 6.0143 0.495367 2
-4.79295 5.57095 0.505689 4.5
-5.12111 3.64547 0.380791 1.33333
3.06677 3.68802 0.325078 7.14286
-6.90065 3.18621 0.45497 0.6
-5.09825 3.26395 0.391748 3
-3.97365 3.31639 0.0996859 0
3.07644 3.23155 0.291547 7.21429
-6.8807 2.83032 0.491665 0.5
-5.08381 2.77289 0.358097 2.125
-4.05819 2.94196 0.121239 0
3.12669 2.69036 0.315512 15.619
3.47715 2.58009 0.291272 21.5
-5.09693 2.44843 0.269102 1
3.18829 2.4409 0.105089 17
-12.745 1.46658 0.376517 1
-0.213627 1.72218 0.124228 1
0.273176 1.13385 0.32039 5.42857
0.614804 1.14002 0.334543 2.38462
1.24192 1.25715 0.119982 2.71429
0.310384 0.66972 0.113933 3.2
0.67736 0.579883 0.292698 3
-3.01651 0.234115 0.155309 2.5
-0.124048 -0.0147952 0.521224 0
0.77417 0.268033 0.389058 3.48673
3.30444 0.146482 0.0666539 0.6
8.0562 0.169081 0.360895 4.66667
-3.59715 -0.409319 0.0830358 6.75
-0.116362 -0.0239819 0.512132 0
3.25619 -0.271163 0.057261 1.5
8.10731 -0.340051 0.363024 0
-3.59313 -0.757519 0.0741817 6.25
-2.18444 -1.0064 0.287968 22
-1.62865 -0.634906 0.31808 23.8929
-1.45943 -0.791686 0.292001 23.3182
3.24607 -0.783284 0.0582786 0.428571
-4.77661 -1.48733 0.201547 8
-3.58241 -1.04562 0.139978 4
-2.14035 -1.17859 0.32805 14
2.94521 -1.46402 0.0962372 4
3.17525 -1.35166 0.137791 2.5
3.73216 -1.43784 0.292079 0.666667
-4.78018 -1.61365 0.312167 5.5
-2.65346 -1.76408 0.238409 8.36364
0.724633 -1.89444 0.111147 7.63636
0.987635 -1.88114 0.0612018 9
2.87794 -1.5821 0.058097 8
3.15681 -1.5407 0.33808 4.33333
3.72712 -1.82849 0.422432 10.6667
5.45342 -1.81325 0.418758 0.5
-0.125824 -2.40383 0.169617 7.33333
0.329731 -2.05601 0.0448744 5.5
0.823585 -2.11016 0.206335 6.57143
1.13038 -2.11421 0.183995 5.71429
3.66406 -2.27196 0.276725 11.0833
-21.1446 -2.92355 0.464049 4
-0.09845 -2.61088 0.207401 4
0.235478 -2.8143 0.113788 2
0.727601 -2.7622 0.119635 2
1.01862 -2.9144 0.127564 0
3.67489 -2.75207 0.28016 10.75
-10.6823 -3.51745 0.474986 2
-4.74289 -3.41318 0.197286 1.25
0.338278 -3.09791 0.119765 3
0.741754 -3.24868 0.144969 5.6
1.13769 -3.168 0.148887 14
3.67862 -3.21012 0.265521 8.44444
-21.317 -3.95956 0.403862 3
-4.73256 -3.71869 0.243449 2.5
3.69488 -3.72475 0.289502 10.4286
-21.2059 -4.47177 0.457121 4
-4.87408 -4.11031 0.107791 2
3.70055 -4.23944 0.275075 9.83333
-4.85699 -4.68716 0.0870893 3
1.3936 -4.58235 0.376946 6
3.70425 -4.77393 0.281185 5
-4.82865 -5.32995 0.063051 7
1.13821 -5.09383 0.391168 1.66667
3.68642 -5.10885 0.205458 2.66667
-4.71535 -5.92143 0.199289 13.6667
-4.4982 -6.09042 0.254461 17
-4.27503 -6.23065 0.252355 17.1667
-3.89554 -6.4752 0.246179 14.25
-1.66193 -6.22738 0.300784 9.6
-1.17654 -6.20434 0.32621 8.66667
-0.733544 -6.1987 0.328742 9.16667
-0.296963 -6.18357 0.289253 13.5
0.145187 -6.1697 0.273921 63.6667
0.67397 -6.17865 0.271883 2.75
1.32941 -6.14951 0.253109 2.66667
1.62342 -6.14935 0.372937 6.5
2.25642 -6.13116 0.32631 3.4
2.78783 -6.21997 0.281301 3.4
3.14978 -6.44276 0.285009 1.5
-3.66303 -6.64125 0.295485 14.3333
-3.31065 -6.71553 0.261293 8
-2.75413 -6.6777 0.307173 7
-2.36432 -6.90444 0.265795 4.6
3.38991 -6.61635 0.280491 1
3.82509 -6.89341 0.213907 0.666667
-2.27274 -7.15209 0.417018 1
4.19809 -7.14711 0.229628 1.33333
4.89147 -7.59758 0.239513 1
5.17427 -7.80448 0.233671 1.5
5.48677 -8.01195 0.149788 1
0.0228844 -8.67337 0.399188 1
-0.123246 -9.10139 0.475616 2
0.535936 -9.44476 0.438061 1
0.703295 -9.58787 0.399994 1
-10.4187 -10.1305 0.419775 1
-2.89351 -12.8942 0.37972 3
-2.0482 -13.4733 0.429559 5
-3.96835 3.61572 -0.0114436 2
3.08235 3.69228 0.0124482 7
-4.72199 3.02964 0.0451261 1
-3.94779 3.22703 0.00158322 0.75
3.08888 3.0719 0.0238873 11
-5.09308 2.77828 0.0370848 0
-4.73126 2.77692 -0.0260086 0
-4.12611 2.80337 -0.0241907 0
-3.95559 2.86783 -0.0269192 7
-0.86528 1.60297 -0.068992 1.5
-1.18161 1.22513 -0.0655313 1.5
-0.84163 1.34436 -0.0700475 1.27273
-1.22202 0.792634 -0.0657443 0.333333
-0.976092 0.874225 -0.0732836 0
-0.283932 0.63386 0.0190638 4
0.300963 0.62734 -0.0125594 3
0.542935 0.597436 -0.026 1.8
-1.61375 0.247569 -0.0584908 1.33333
-1.33276 0.25157 -0.0627641 1
0.653922 0.311746 -0.0278482 3.125
1.47383 0.122208 -0.0481001 2
1.6358 0.0710958 -0.0431768 3.16667
2.17158 0.153752 -0.0386936 1
2.91965 0.17042 -0.0129759 3
-3.58815 -0.430777 -0.0278404 8
-2.16401 -0.483226 -0.0699718 0
-1.77488 -0.406869 -0.0589712 1.71429
-1.34568 -0.359734 -0.068228 1.66667
0.628126 -0.282496 -0.0475349 3.15385
1.35442 -0.229806 -0.0497777 3.57143
1.70381 -0.253851 -0.0419999 2.42857
2.1553 -0.223489 -0.0379962 1.25
2.90391 -0.231648 -0.012526 2.25
-3.57433 -0.809776 -0.0216861 8.8
-2.12882 -0.79773 -0.028931 5.66667
-1.73001 -0.688073 -0.0289593 9.38461
-1.31529 -0.735953 -0.0600736 4.23529
-0.937048 -0.981666 -0.0762834 0.714286
0.30161 -0.62521 -0.0399558 0
0.555673 -0.646228 -0.0468292 0.166667
1.24448 -0.777057 -0.0466517 1.84615
1.74135 -0.784877 -0.0403575 1.77273
2.13308 -0.669891 -0.0407038 1.25
2.95266 -0.756523 -0.00233436 1.5
3.09478 -0.869127 0.0234976 0
-3.58054 -1.1001 0.0297202 8
-1.67871 -1.23441 -0.0589883 1.55556
-1.33598 -1.32576 -0.0597714 1.3
-0.789576 -1.20408 -0.068716 1.36842
-0.410866 -1.35699 -0.0731321 0.75
0.2856 -1.36562 -0.0641485 0.9375
0.738788 -1.24452 -0.0563873 1.36364
1.30038 -1.32384 -0.0445411 1.86667
1.63355 -1.2218 -0.0434856 1.6
2.09376 -1.19021 -0.0419599 0.666667
2.90519 -1.28639 -0.000693917 1.66667
3.01991 -1.18186 0.0127973 2
-1.58494 -1.67326 -0.0542542 1.33333
-1.21878 -1.7403 -0.0571308 1.90476
-0.798273 -1.89972 -0.0526442 1.57143
-0.290031 -1.97578 -0.0508038 1.75
0.290834 -1.91687 -0.00847775 6.19048
0.749074 -1.76943 -0.00970954 6.34783
1.1901 -1.67043 -0.0416159 2.33333
1.73864 -1.7769 -0.0344068 2
2.11634 -1.60252 -0.0299087 0
2.80892 -1.76653 -0.013042 3.5
-1.573 -2.10123 -0.0539227 4
-1.12624 -2.03556 -0.053964 0
-0.757919 -2.10288 -0.0479246 1.42857
-0.262161 -2.1266 -0.033599 2.89474
0.0716808 -2.06103 -0.00440431 3.625
1.25599 -2.0159 0.00978231 8
1.53116 -2.09669 -0.0334112 2
3.52911 -2.06037 -0.0132273 0
-2.69565 -2.70535 -0.0445369 0
-4.87032 -4.11287 0.00674313 2
3.44452 -43.6982 3.99083 15
3.20405 -43.6764 3.67944 16
3.77409 -43.6494 3.76466 13
-6.07597 -43.9534 3.19027 13
3.56843 -43.6862 2.96949 24
3.62934 -43.673 3.1309 19
0.535967 -44.7814 3.09973 14.5
9.66456 -44.5883 2.98747 12
6.95731 -24.6128 1.99995 13
7.43834 -24.5797 2.16869 7
7.6762 -24.5687 2.09631 12
0.805705 -36.9114 2.25893 13
2.34168 -36.7859 2.29515 15
3.39146 -36.8124 2.23901 9
-5.99112 -16.4566 1.58866 17
-5.89365 -16.5779 1.70594 3.5
6.81091 -22.6894 1.76314 6.33333
-2.65769 -23.1547 1.60423 5.5
7.47646 -24.0513 1.64801 18
17.5178 0.838116 1.18373 5
10.5796 -3.26551 1.15935 2
10.5976 -4.98273 1.2106 2
-3.04961 -7.04639 1.13378 18.3333
1.24552 -8.76326 1.00377 2
-9.94656 -12.1307 1.14222 2
-8.8169 -12.1933 1.19248 3.5
-5.96825 -16.5036 1.36341 13
-5.84597 -16.6085 1.39178 5
6.33252 -20.4731 1.03362 5
4.7715 -20.5084 0.957484 8
-4.7427 -21.5445 1.30703 5
0.66184 -21.7676 1.36814 11
-5.101 3.63596 0.679847 2.6
-6.87216 3.09104 0.582563 1
-5.08136 3.18531 0.674273 2.625
-6.87995 2.88899 0.663285 0.75
-5.08219 2.7934 0.716391 1
3.09053 2.66486 0.595011 8.25
-5.10948 2.46026 0.762447 0
-12.6678 1.57731 0.686524 1
0.247024 1.26045 0.546074 0
0.663369 1.2719 0.589656 0.4
0.735597 0.543111 0.557038 4.25
8.18128 0.685638 0.588261 1
0.8023 0.304072 0.556056 4
8.1784 0.229526 0.56715 1
-0.137266 -0.0141734 0.53801 3
8.17773 -0.162361 0.583451 1
-2.45311 -0.839074 0.631205 9.5
-1.62195 -0.559666 0.539439 2
8.18419 -0.60325 0.603511 1
3.81563 -1.84465 0.619425 13.2222
4.90985 -1.96482 0.555082 0
5.15231 -1.9761 0.568276 0
5.53254 -1.96977 0.599701 0
3.8191 -2.26769 0.650715 15.2308
-21.8494 -2.72779 0.920918 6
3.84327 -2.7839 0.694089 13.6
3.84982 -3.35339 0.678491 10.2222
10.6119 -3.28235 0.592732 3
-21.8338 -3.98737 0.795403 8
-10.8541 -3.61557 0.803243 3.5
3.85974 -3.85842 0.671051 7.125
-21.7973 -4.33409 0.795729 5.33333
1.59107 -4.19806 0.766392 6.46154
3.86469 -4.34515 0.649875 5.66667
3.88638 -4.64951 0.682495 5.33333
3.85961 -5.06672 0.634983 7
-21.8601 -5.60744 0.796133 4
-2.26027 -6.50818 0.545509 0
-3.11317 -7.00972 0.87284 11.5
-3.16614 -7.04472 0.853268 5.5
-9.67062 -7.62068 0.644153 1
0.887958 -8.88281 0.713701 3
1.16645 -8.74236 0.98497 23
0.277312 -9.31064 0.610559 1
0.844639 -9.8319 0.666493 1
-10.3309 -10.9643 0.648952 2
1.84511 -10.7788 0.521917 3
7.16241 -10.6322 0.599706 3
-9.85391 -11.8918 0.782492 2.33333
-8.80983 -12.1599 0.894598 11.5
-1.69656 -13.7547 0.498093 1
-3.73089 -14.1623 0.691424 2
-2.84589 -14.4846 0.508848 3.5
-2.70581 -14.7785 0.810809 5
-5.89682 5.93106 0.400927 6
-4.80902 5.58155 0.399955 2
-5.09732 3.61729 0.399659 2.66667
-4.03465 3.52551 0.127725 0
-0.520378 3.85358 0.13879 0
3.08045 3.72649 0.273146 7.57143
-6.91601 3.08791 0.373665 0
-5.086 3.23761 0.393146 3.4
-4.72572 3.11196 0.120769 1
3.08373 3.26212 0.290432 7.46154
-6.88113 2.92445 0.251728 1
-5.07611 2.77753 0.351176 2
3.09573 2.73193 0.293245 10.0625
-5.07513 2.42906 0.141163 0
3.16485 2.45784 0.142584 29
-0.218774 1.76435 0.126209 1
0.303714 1.14105 0.331112 4.15385
0.651872 1.16469 0.326808 5.66667
1.12493 1.24864 0.162401 2.11111
0.346274 0.678522 0.113404 2.88889
0.651818 0.597483 0.288008 2.94118
3.27661 0.509932 0.0639465 0
3.94424 0.5664 0.185095 0
8.05299 0.706109 0.430548 5
-3.0393 0.226094 0.0949073 0
0.777993 0.310876 0.430458 3.46552
3.26665 0.162905 0.0644139 1
3.61182 0.28289 0.129757 0
8.04845 0.366837 0.401004 5
-3.58527 -0.40079 0.0996641 7.5
-0.124 -0.0150713 0.521096 0
3.24692 -0.290874 0.0591655 0
3.59594 -0.21112 0.123066 0
8.10673 -0.189059 0.405759 0.666667
-3.57312 -0.709527 0.0929936 10.6667
-1.61995 -0.612141 0.332834 28.2593
-1.44725 -0.764927 0.222049 25.3077
3.19519 -0.743205 0.0497151 0
3.54277 -0.576228 0.118498 0
8.15113 -0.699329 0.382119 0
-3.57081 -1.05869 0.0817159 10.5
-2.94057 -1.31893 0.0925685 6
-2.34437 -1.0647 0.194757 17.4
3.17426 -1.33751 0.127177 3.1
3.6847 -1.36943 0.342264 1
-2.69995 -1.61815 0.0399148 3
0.755131 -1.91481 0.123675 7.61111
1.16694 -1.98151 0.0602335 7
2.88163 -1.57156 0.186895 8.5
3.16993 -1.51165 0.341955 4
3.69276 -1.84943 0.39033 13.5
-0.0794289 -2.42885 0.158019 6.75
0.236071 -2.25321 0.0669323 4.125
0.69544 -2.1775 0.150018 4.83333
1.1735 -2.12115 0.159168 6.125
3.69101 -2.27957 0.352261 11.7
-21.1885 -2.72989 0.501064 4
-4.73519 -2.93033 0.275195 3
-0.2124 -2.61782 0.165507 6.71429
0.250249 -2.76381 0.113196 2
0.669594 -2.71926 0.118456 1.5
3.68989 -2.74693 0.327068 10.5714
-4.73112 -3.35771 0.266159 2.33333
0.770941 -3.24709 0.169126 2.5
1.11747 -3.15972 0.150818 7.25
3.69758 -3.17387 0.318138 7.85714
-4.73153 -3.88474 0.255409 0
3.6948 -3.64784 0.307011 10.8571
-21.1364 -4.28111 0.449905 4
1.64724 -4.27602 0.467474 6.5
3.70606 -4.20561 0.292489 9.14286
3.72064 -4.72579 0.324503 7.2
3.77576 -5.1231 0.44421 3.66667
-4.768 -5.88113 0.2602 10.3333
0.429363 -5.70498 0.0205674 10
0.838373 -5.70012 0.0360584 9
1.26037 -5.69321 0.0485418 1
1.53488 -5.78954 0.281737 1
-4.25384 -6.24011 0.310404 13
-3.88954 -6.45893 0.36613 10.3333
-2.25634 -6.47303 0.462588 2
-1.76035 -6.25596 0.346943 4
-1.28746 -6.20589 0.351553 9.66667
-0.764902 -6.19104 0.349184 11.5
-0.258842 -6.18254 0.352654 9.66667
0.319812 -6.18344 0.307544 2
0.751765 -6.1694 0.295047 2
1.18673 -6.16334 0.280511 4
1.69148 -6.16022 0.413569 0.666667
2.05672 -6.13851 0.316995 0.5
2.67286 -6.19844 0.344772 0.333333
3.17148 -6.43919 0.3677 1
-3.63592 -6.647 0.332383 11.25
-3.19559 -6.72979 0.35351 10.6667
-2.66132 -6.67126 0.379555 5.66667
-2.41508 -6.82608 0.353588 2.66667
3.27344 -6.52016 0.189202 1
3.74187 -6.84971 0.408134 1
-2.26403 -7.09763 0.367793 5
3.97671 -7.01004 0.380105 1
4.19143 -7.14227 0.23522 1
4.6529 -7.48381 0.452086 0
4.87708 -7.60297 0.380255 1.5
5.30573 -7.90088 0.312862 1
-0.372737 -8.91175 0.461199 1
0.138447 -8.80579 0.430011 2
0.822128 -8.85496 0.481903 2
0.713711 -9.61457 0.374616 1
1.66696 -10.5467 0.440168 3
-3.33581 -12.6278 0.399363 2
-2.42302 -13.2031 0.370596 2
-1.53868 -13.7762 0.392877 3
-3.98433 3.7224 -0.0444599 1
-4.74968 2.9879 -0.0436945 0
-3.93779 3.20355 -0.0214595 1
-4.69143 2.89573 -0.0352461 0
-3.96028 2.85925 0.0246888 5
-1.14203 2.20918 -0.0766472 2
-1.22166 1.58702 -0.0740514 1.33333
-0.852552 1.69067 -0.0714076 1.5
-1.22121 1.24134 -0.0705804 1.36364
-0.846706 1.28188 -0.0743609 1.35714
-1.19314 0.741154 -0.070625 0.176471
-0.794006 0.924571 -0.073545 1.75
0.30053 0.63673 -0.00854182 3
0.565583 0.592867 -0.0182919 1.83333
1.2824 0.683552 -0.049464 2
1.61115 0.792785 -0.0473967 1.5
-3.02546 0.297576 -0.0600917 2
-1.53567 0.243803 -0.0668077 0
-1.3406 0.208425 -0.0660695 1.5
0.689646 0.299069 -0.0357368 2.69565
1.44301 0.151552 -0.0426214 2
1.6676 0.104526 -0.0428105 3
2.24505 0.200801 -0.0329955 1.2
2.89103 0.201886 -0.0175378 3
2.9933 0.127044 0.00834745 3
-3.5804 -0.465173 -0.00868094 9
-2.13915 -0.40281 -0.0619653 0.666667
-1.85823 -0.44773 -0.0560026 4.6
-1.34711 -0.336607 -0.0664854 2
0.627281 -0.273515 -0.0478276 2.70588
1.39351 -0.217706 -0.0508829 3.16667
1.6534 -0.246896 -0.0415695 2.58333
2.19507 -0.279342 -0.0341061 0.5
2.81036 -0.275481 -0.0252445 2.66667
3.00127 -0.298466 0.0129482 3
-3.57636 -0.755773 -0.0129297 9.5
-2.1888 -0.739104 -0.0587613 4
-1.77424 -0.732609 -0.0429221 7
-1.27865 -0.708346 -0.0683971 2.73684
-0.987831 -0.969016 -0.0740928 1.25
0.643385 -0.742618 -0.0508906 1.2
1.27213 -0.783495 -0.0462962 1.9
1.67113 -0.711865 -0.0417462 1.9
2.28166 -0.811035 -0.0327238 0.5
2.8794 -0.7408 -0.0108592 0.666667
2.9955 -0.622978 0.0115148 3
-3.57238 -1.02489 -0.0147977 9.5
-1.72249 -1.24981 -0.0630174 1.52941
-1.31923 -1.32299 -0.0662294 1.71429
-0.767649 -1.19287 -0.0710781 1.32
-0.323725 -1.38717 -0.0746474 0.833333
0.319328 -1.34696 -0.0643713 1
0.739291 -1.23788 -0.0498549 1.52941
1.24915 -1.27924 -0.0457575 1.80952
1.68413 -1.19933 -0.0408554 1.77778
2.089 -1.18248 -0.0333869 0
2.92973 -1.17759 0.00313801 2
-1.57621 -1.62105 -0.0603449 1
-1.27359 -1.76997 -0.0611728 1.57143
-0.774476 -1.80561 -0.0569315 2.16667
-0.206498 -1.84755 -0.0535694 1.77778
0.254642 -1.83399 -0.0269523 4.88
0.745408 -1.71006 -0.0265699 5.42857
1.16534 -1.66651 -0.0371329 2.76923
1.70405 -1.71551 -0.0372741 2
2.31471 -1.70898 -0.0320373 0
2.8715 -1.52318 -0.00732243 6
-3.55296 -2.26781 -0.00642455 5.33333
-2.10262 -2.38618 -0.0508564 3
-0.698499 -2.137 -0.0540322 1.38462
-0.24948 -2.15123 -0.0320437 2.63158
0.0919242 -2.05959 -0.000537813 3.66667
1.42196 -2.04548 -0.0393851 3
1.71683 -2.12157 -0.0181081 3.33333
3.55656 -2.28779 0.01981 9
-3.54783 -2.65269 -0.0219151 1
1.91024 -2.74832 -0.0165426 0
3.5253 -2.62576 -0.00366366 1
-0.380675 -5.71364 -0.0214223 1
0.0223717 -5.72082 2.45571e-05 7
-6.0756 -43.9597 3.88155 13
-6.41655 -43.9203 3.76553 16
3.2083 -43.6748 3.72257 16
3.54038 -43.692 3.6277 16
-6.22622 -43.9231 2.96224 15
10.0353 -44.5782 2.93933 14
7.33806 -24.573 2.08828 13
0.569198 -36.8884 1.91646 15
2.00108 -36.8438 2.19483 13
2.82492 -36.8073 2.19551 18
4.72516 -13.0646 1.60008 1
-6.00302 -16.1558 1.70305 5
-5.89892 -16.1779 1.57205 3
6.68735 -22.6953 1.69866 6
10.2684 -22.7498 1.6493 6
-1.47983 -23.1969 1.60004 4
3.15221 -36.8029 1.82075 15
10.5682 -2.63378 1.13455 1
10.5798 -3.38499 1.16831 3
10.6164 -4.27206 1.18424 1
-3.17241 -7.06083 1.06285 4.66667
1.13276 -8.8299 1.28872 1
2.46512 -9.07851 1.0493 20
2.55333 -9.10493 1.18683 5
-9.32314 -12.5877 1.08931 4.2
4.68195 -13.0592 1.27066 2
-5.96292 -16.1506 1.32905 3
6.20348 -20.4783 1.11487 6
7.77149 -20.4539 1.0741 5
-4.94671 -21.5133 1.23434 5
10.2651 -22.6808 1.19988 4
5.35905 -25.0563 0.974863 20
-5.09309 3.59535 0.638257 3.33333
-6.87395 3.07906 0.581052 1
-5.07673 3.21095 0.661549 3
-5.07796 2.76611 0.648219 1.42857
3.25384 2.63162 0.631513 20.625
3.65639 2.58444 0.643314 5.8
4.16449 2.71056 0.674841 8
0.276297 1.28437 0.568759 2.33333
0.723428 1.25685 0.602715 3.4
8.10817 0.8141 0.835187 1
-0.113442 -0.00745806 0.536084 0
0.880524 0.345257 0.550671 1.83333
0.98894 0.21835 0.546679 2.5
8.1645 0.322518 0.596813 2
-0.12784 -0.0139041 0.535106 0.5
8.18791 -0.354941 0.585433 0.5
-1.53549 -0.676964 0.611282 12.5
3.84477 -1.82659 0.614035 15.5
5.30097 -1.99276 0.594511 0
3.82554 -2.24253 0.659537 16.0833
10.5872 -2.33313 0.658271 2
-21.8356 -2.60928 0.781277 6
3.83259 -2.73213 0.662963 13.9231
3.85531 -3.26503 0.692164 10.9167
10.5698 -3.12715 0.657726 2
-10.8268 -3.55537 0.725514 3.75
1.92422 -3.74158 0.728652 9.69231
2.01177 -3.68217 0.578598 10
3.85796 -3.82239 0.668862 7.85714
10.6108 -3.55622 0.591385 2.5
-21.8155 -4.11349 0.81672 5
1.8275 -4.08471 0.835244 1
3.87996 -4.15669 0.690242 4.33333
-21.8268 -4.83556 0.708768 6
3.88056 -4.54702 0.686348 7.33333
3.85287 -5.16892 0.598906 2
-1.94052 -6.36167 0.513823 0
-3.25607 -6.98075 0.528398 1
-2.53036 -6.59716 0.521076 1
