VERSION .7
FIELDS x y z intensity
SIZE 4 4 4 4
TYPE F F F F
COUNT 1 1 1 1
WIDTH 1529
HEIGHT 1
VIEWPOINT 0 0 0 1 0 0 0
POINTS 1529
DATA ascii
2.86096 -9.80235 -0.366814 0
0.305663 -9.98415 -0.289902 13
0.745765 -10.0254 -0.299518 16
1.30114 -10.0556 -0.434142 19.6667
1.87384 -10.1358 -0.408606 12
2.34862 -10.1665 -0.300087 13
2.63891 -10.1931 -0.531259 13
-4.87068 -8.78902 -0.698548 2
-4.4735 -9.54904 -0.744169 15
-3.7295 -9.6204 -0.702067 13
-3.00752 -9.67375 -0.663839 24
-2.3105 -9.74308 -0.631831 55
-1.62345 -9.81637 -0.605887 49
67.4312 -4.46547 2.48292 128
16.7903 0.278095 1.53407 11
-4.67896 -9.77155 1.50739 1
-2.2212 14.3033 1.31412 1.5
-1.84174 14.315 1.10649 2
-2.26565 10.0236 1.10358 1
9.25577 0.812229 1.06415 18
10.2738 0.720375 1.01546 3
16.8364 0.0617668 0.99678 7
7.38421 -2.0042 0.992178 2
7.69141 -2.03186 1.0121 2
11.3569 -2.37008 1.11168 1
12.4594 -2.46593 1.31088 1
25.5574 -3.60082 1.2818 10
-4.48258 -4.30818 1.01151 0
-4.90719 -8.81667 0.99562 4
-4.7366 -9.4898 1.08761 25
-4.65505 -9.97652 1.01299 1
-3.19165 -9.96638 1.31711 1
-2.46854 -10.1127 1.30387 0
-1.02323 -10.2051 1.1291 1
-0.936573 -10.2411 1.27918 3
1.1357 -10.4043 1.29413 1
2.70377 -10.3838 1.14384 8
-2.36082 14.287 0.82996 5.5
-2.41035 12.2895 0.876278 4
-2.42729 10.0402 0.848394 22.3333
-1.83127 8.41495 0.644624 17
-0.671808 6.69727 0.582635 15
-0.166863 6.70726 0.770128 5.66667
-0.487548 6.47334 0.60526 25
-0.260456 6.37554 0.605332 21.5
-1.64435 5.25018 0.625612 2
-0.843034 2.53325 0.541079 0
-0.761652 2.11932 0.540115 3
0.0550626 2.49998 0.562923 4
-1.10837 1.7261 0.567933 40.2857
-0.83134 1.78072 0.564287 29.4348
0.298757 1.77421 0.583712 24.2121
0.736152 1.72463 0.58501 16.0286
-0.973853 1.32511 0.547119 10
0.845934 1.3236 0.591044 10
1.89916 1.09791 0.567735 18.9167
2.0362 1.45555 0.619977 19
3.32188 1.3418 0.663383 13
3.74169 1.30644 0.594323 13.8
5.45398 1.15373 0.69238 9.66667
5.88938 1.11396 0.54538 7
6.39723 1.06744 0.901507 1
6.57437 1.04707 0.769134 5.5
8.72665 1.03861 0.636276 1
-1.06874 0.571108 0.513426 5
1.03916 0.742507 0.534115 0
1.97818 0.943484 0.62439 3.5
2.1399 0.966147 0.539055 8.85714
2.87296 0.790834 0.607242 12.2727
7.14793 1.00236 0.751947 10.6667
9.27595 0.779868 0.700945 23
10.2638 0.71944 0.787923 5
11.7292 0.595138 0.684678 4
-0.860388 0.205237 0.534591 2
-0.082513 0.01955 0.50647 0
1.98508 0.250069 0.497805 1
16.7479 0.177048 0.864649 68
-0.116245 0.00900657 0.504415 150
17.115 -0.301252 0.470676 4
-5.1163 -0.88383 0.799898 1
-4.69108 -0.929682 0.864661 0
-3.97834 -0.987518 0.737912 16
-4.00106 -1.38148 0.684627 31
-3.9725 -1.08687 0.826855 9
-4.0516 -1.75437 0.691385 32.6
3.67596 -1.74414 0.621078 34.625
4.03456 -1.69327 0.781759 11
4.84714 -1.76885 0.607315 13.5
5.21241 -1.8659 0.692609 0
5.8925 -1.86356 0.502047 23
6.7931 -1.94722 0.68871 8
7.1397 -1.97709 0.717565 8
-4.27568 -2.22041 0.693183 23.4545
3.4949 -2.27884 0.684435 45.25
9.68692 -2.31813 0.501666 24
10.1666 -2.25499 0.608357 2.5
11.1931 -2.35486 0.80167 3
11.6234 -2.38347 0.847769 2
-4.62083 -2.89809 0.565224 28.3333
3.35228 -2.71672 0.63738 23
-4.65892 -3.33972 0.590515 18.3333
3.27341 -3.18215 0.635163 15.7273
20.5312 -3.15998 0.485894 5
3.26221 -3.6529 0.611721 20.7143
-4.4544 -4.25507 0.720775 19.3077
3.23577 -4.12178 0.61761 15.2
3.26019 -4.74723 0.706354 9.5
3.21302 -5.25773 0.637995 8.25
66.8424 -6.11412 0.432231 150
-4.67609 -6.7799 0.698617 20.8571
-4.68089 -7.1552 0.941368 3
-4.7204 -9.33173 0.729522 21.5
-4.68508 -9.6195 0.86427 27.5
-3.4406 -9.82431 0.786017 4
-2.26236 -9.97174 0.894717 1
-1.57491 -9.95253 0.879767 1.5
-1.27321 -9.95983 0.901601 7
-0.911376 -9.96745 0.890722 150
-3.38928 -10.0454 0.705286 2
-1.6627 -10.0012 0.666293 1
-1.0904 -10.1914 0.693636 6
-0.891041 -10.0813 0.736208 67.5
-0.213297 -10.0608 0.886758 2
0.274772 -10.1169 0.562123 27
0.860502 -10.072 0.459008 7
1.58757 -10.1353 0.462112 5
2.33863 -10.1876 0.466209 4
2.71445 -10.26 0.722568 14.6667
-1.73902 11.3324 0.328133 15
-1.51008 10.0337 0.0868943 2
-0.893454 7.18841 0.147949 16
-0.68772 6.6645 0.284484 21.6667
-0.524923 6.50547 0.326709 39.5
-0.349646 6.41123 0.187412 40
-0.161013 5.71726 0.333888 21.75
-0.755712 5.41019 0.113304 1
-1.12254 4.24379 0.237376 4.5
-0.907123 4.14033 0.196334 8
-0.749909 4.00644 0.0397269 32
-0.809165 2.82542 0.137452 19.3333
-0.0633159 2.54756 0.154002 2
-0.781423 2.19702 0.279979 2
-0.00277889 2.37621 0.21927 10
0.0495375 2.3829 0.28129 41.5
-1.01916 1.66276 0.290296 45.8421
-0.829286 1.78692 0.279753 38.6571
0.348348 1.77692 0.311867 49.2188
0.772606 1.70338 0.305819 39.4154
-1.01001 1.40808 0.254724 31.6
-0.977659 1.20321 0.399204 1
0.930814 1.39293 0.214749 34.6
1.15831 1.16988 0.18478 23.2857
1.82413 1.09426 0.313458 21.8182
2.23052 1.06352 0.199946 120
-1.13724 0.593647 0.174674 3.28571
-0.973405 0.566561 0.190585 0
0.866471 0.551097 0.00390065 0
1.3301 0.624709 0.195877 13.8462
1.63739 0.781768 0.317667 23.5185
2.04993 0.953824 0.324844 7
-1.29621 0.448412 0.221105 2.75
-0.882841 0.227642 0.38173 3.4
-0.0917929 0.0218525 0.490727 0.375
0.0788558 0.0838372 0.437685 0.545455
1.48611 0.4711 0.203371 1.78947
1.64157 0.322061 0.31947 7.13636
2.079 0.12862 0.491369 7.5
9.52797 0.477535 0.135073 50
-1.06995 -0.244055 0.369783 5.11111
-0.0882595 0.0114086 0.469751 0.391304
2.18917 0.00625133 0.485452 13
17.0695 -0.243603 0.442921 13
18.0804 -0.333907 0.415541 10
-3.99671 -1.31425 0.266672 52.0909
3.91725 -1.47556 0.343702 3.5
-4.08515 -1.71744 0.226747 43.6429
3.66193 -1.72435 0.199303 42.3529
4.31412 -1.51373 0.34698 0
5.82912 -1.91581 0.310965 23
6.25841 -1.89795 0.238151 7
6.64354 -1.93154 0.472509 7.5
-4.27111 -2.18187 0.229021 29.75
3.47725 -2.26031 0.149251 47.6471
7.36957 -1.98324 0.0332443 2
8.02409 -2.03255 0.24558 0
9.75063 -2.22354 0.192946 34
10.3953 -2.26998 0.452657 3.5
3.22574 -2.70868 0.183845 23.8824
-4.65213 -3.27139 0.442586 7.5
3.163 -3.24157 0.170798 24.9
-4.67662 -3.52553 0.117074 1.25
-4.43632 -3.88913 0.122074 16
3.14052 -3.78907 0.253 32.8889
25.5665 -3.74967 0.357026 11
-4.18717 -4.29107 0.159601 5
3.02153 -4.17015 0.0226506 16
3.07838 -4.13374 0.303158 30
-4.21473 -4.50351 0.444313 0
3.26366 -4.73626 0.405663 14.75
3.22111 -5.303 0.264069 2.66667
-4.83992 -5.90514 0.221671 7
66.8807 -5.64598 0.271436 150
-4.63049 -6.42296 -0.0098874 15
3.14727 -6.00018 0.0526072 0
-4.64608 -6.56392 0.325903 10
3.00194 -6.84812 0.00433344 1
-4.71895 -8.89898 0.0840583 23.5
-4.71144 -9.17292 0.421316 19
-4.16079 -9.60343 0.308232 46
-3.33363 -9.67909 0.211853 44.3333
-2.69708 -9.74222 0.341868 42
-2.24527 -9.76751 0.153442 51.5
-1.838 -9.8036 0.259882 39.5
-1.21095 -9.86147 0.28767 36.3333
-0.69633 -9.89618 0.251039 33.6667
-0.268075 -9.94541 0.0759755 39
0.0922788 -9.97341 0.401147 29.5
2.8301 -9.66408 0.446366 5
0.438038 -10.0049 0.10115 40.5
0.737273 -10.0387 0.370426 40
1.25757 -10.0896 0.212324 33.6667
1.90426 -10.1517 0.141276 33
2.20548 -10.1445 0.418692 28
2.67386 -10.2161 0.157279 36.5
-0.472096 6.65989 0.0150484 0
-0.820641 2.83216 -0.0175926 17.75
-0.70804 2.14647 -0.0399532 1.33333
-0.187295 2.15752 -0.0648355 2
0.0196794 2.17432 -0.0057984 9
-0.99801 1.69862 -0.0615443 30
-0.737396 1.72029 -0.0665482 8.91667
-0.245448 1.82393 -0.0666329 2.35
0.283324 1.77047 -0.0532066 13.25
0.770182 1.6989 -0.037071 22.4
-1.07617 1.29188 -0.0656296 13.7857
-0.838645 1.33566 -0.0811743 8.2
0.354558 1.1588 -0.0739915 0.166667
0.972003 1.36169 -0.0312237 33.6667
1.96681 1.08651 -0.0843148 8
-1.60784 0.62416 -0.079893 7
-1.29686 0.769193 -0.0832421 12
-0.637311 0.636934 -0.0736501 1.17949
-0.254916 0.76087 -0.0719396 1.94186
0.262886 0.741418 -0.0717279 1.96825
0.760921 0.688068 -0.0735599 1.96667
1.18437 0.664407 -0.080221 7.16667
1.53799 0.774668 0.00082773 25
9.54991 0.746089 -0.0430321 37
-1.11012 0.365988 -0.0771402 1.6
-0.72514 0.302514 -0.078541 2.52381
0.484817 0.492437 -0.0742593 3.6
0.811078 0.269008 -0.0801116 1.68182
1.26361 0.329523 -0.0842894 3.38462
1.73473 0.166006 -0.0755724 7.7
2.20486 0.129551 -0.086737 7.14286
2.6002 0.139593 -0.0858172 4
3.27143 0.202576 -0.0758359 2
4.17684 0.0545116 -0.078757 0
9.53656 0.513153 -0.296994 12
-1.04959 -0.183324 -0.0844915 0.4
-0.675451 -0.267806 -0.0893697 2.92793
-0.381043 -0.410771 -0.0856176 2.72973
0.426968 -0.424862 -0.091238 3.4
0.744865 -0.263389 -0.0893166 2.35714
1.2456 -0.267391 -0.0916651 4.6
1.73289 -0.217919 -0.0928532 9.09091
2.19979 -0.24159 -0.0917723 7.15385
2.74263 -0.261815 -0.0869806 4
3.29998 -0.142092 -0.0772809 2
3.57649 -0.0965557 -0.0760631 0
4.13341 -0.2231 -0.0780045 0
18.0791 -0.346313 -0.160592 13
-3.07164 -0.943188 -0.0861485 1
-2.71353 -0.877584 -0.089232 4.5
-2.29818 -0.857411 -0.0975971 5
-1.64744 -0.647321 -0.095885 10.625
-1.25461 -0.758826 -0.0460145 19.9429
-0.682894 -0.636727 -0.0948756 0.574468
-0.185608 -0.616807 -0.0958655 1.98261
0.239163 -0.586287 -0.0934601 2.56818
0.702079 -0.630442 -0.0932081 0.454545
1.26111 -0.698606 -0.0995089 6
1.74274 -0.718067 -0.0988344 8.66667
2.18496 -0.742526 -0.097692 5.8125
2.76083 -0.65802 -0.0900083 4.2
3.32517 -0.723053 -0.082476 3
4.00597 -0.493777 -0.0800203 0
4.28739 -0.530388 -0.0795227 0
-3.96781 -1.29721 -0.0343642 0
-3.1951 -1.28395 -0.0890852 0
-2.69106 -1.22547 -0.0935217 3.11111
-2.2868 -1.24315 -0.0990824 4.625
-1.91341 -1.39202 -0.103804 4
-1.10975 -1.24791 -0.0815862 13.6667
-0.778599 -1.31075 -0.107943 8.71429
-0.276078 -1.34586 -0.10556 6.33333
0.456614 -1.43187 -0.0962417 2
0.853281 -1.29656 -0.109647 4.89474
1.24223 -1.17495 -0.105726 5.875
1.81881 -1.23354 -0.104158 4.33333
2.21295 -1.23533 -0.102376 4.125
2.66827 -1.22459 -0.0964776 5.33333
3.13815 -1.26653 -0.0893711 1.5
3.86209 -1.18688 -0.0871478 0
25.996 -0.987958 -0.297032 7
-4.03356 -1.62416 -0.0616237 0
-2.63702 -1.69457 -0.0975346 1.5
-2.29626 -1.74797 -0.101082 3.11111
-1.71209 -1.74183 -0.107512 4
-1.23364 -1.71187 -0.111179 5.5
-0.709264 -1.61409 -0.108283 6.72
-0.247292 -1.71857 -0.10826 5.03704
0.232199 -1.67626 -0.105769 2.38095
0.753749 -1.71499 -0.108432 3
1.20805 -1.72081 -0.110833 5.125
1.78136 -1.7401 -0.109137 3.64286
2.25775 -1.68443 -0.104679 3
2.86844 -1.77108 -0.0962496 3
3.51216 -1.79923 -0.0804721 1
3.76711 -1.64597 -0.0649673 11
4.48426 -1.52811 -0.104259 7
-4.30151 -2.33533 -0.315014 0
-2.18105 -2.19522 -0.103409 1.58333
-1.82987 -2.29312 -0.107633 3
-1.22516 -2.21086 -0.113209 3.5
-0.73773 -2.32722 -0.118302 3.33333
-0.0426876 -1.98535 -0.105418 2
0.252684 -2.03873 -0.110307 1.33333
0.811644 -2.29949 -0.113775 2.33333
1.30836 -2.27539 -0.114869 2.30769
1.71678 -2.16252 -0.110555 2.5
2.28687 -2.2709 -0.107091 1
2.61244 -2.15395 -0.104987 5
3.44651 -2.20702 -0.0719588 0.5
-2.25908 -2.63602 -0.10522 0
-1.72852 -2.65654 -0.108624 0.555556
-1.28481 -2.82187 -0.113443 1.14286
-0.752754 -2.65471 -0.116745 2.6
-0.338852 -2.562 -0.121873 0
0.464147 -2.54928 -0.117619 0
0.790867 -2.61135 -0.116937 1.14286
1.27189 -2.66664 -0.112675 0
1.72461 -2.71939 -0.112079 0
2.09986 -2.6164 -0.107811 0
3.10673 -2.7909 -0.0888003 17.3333
-1.59843 -3.0017 -0.114944 0
-1.21049 -3.07835 -0.116891 0
-0.844115 -3.11304 -0.11604 0
3.08799 -3.35442 -0.129657 7
3.05661 -3.74125 -0.106159 18.75
-4.18228 -4.17115 -0.10225 67
3.00894 -4.26673 -0.0497426 16
3.02678 -4.09671 -0.0500492 17
3.21133 -4.75942 -0.0803182 16
3.23039 -5.12042 -0.0918767 7.5
3.00864 -5.87119 -0.180148 2.5
3.05871 -5.73065 -0.0900536 8
3.02138 -6.23798 -0.226255 1
2.91925 -6.53065 -0.180904 5.66667
2.78952 -7.4552 -0.226976 1
2.83198 -7.79066 -0.142288 8.5
-5.07114 -8.20584 -0.137472 10
-4.84134 -8.81903 -0.281778 10
-4.67689 -9.55453 -0.12907 4
-4.30975 -9.58835 -0.209658 10.75
-3.67805 -9.64528 -0.160368 6.8
-3.21286 -9.67805 -0.16434 3.5
-2.80489 -9.71897 -0.21256 12.75
-2.16033 -9.76956 -0.247219 20.5
-1.56431 -9.82292 -0.304998 31
-1.35292 -9.82623 -0.19271 11
-0.73942 -9.88219 -0.302006 36.4
-0.130977 -9.94672 -0.35773 21.6667
0.0860867 -9.94948 -0.303334 25
0.256546 -9.98792 -0.376715 11
0.707237 -10.0367 -0.293513 20.75
1.42247 -10.0936 -0.322598 16.75
2.16497 -10.1716 -0.358087 10.75
-4.52133 -9.55842 -0.587686 9
-3.81049 -9.60587 -0.680481 20.5
-3.08537 -9.67181 -0.653387 15
-2.44548 -9.74188 -0.73212 9
-1.75338 -9.78337 -0.703847 13
-1.07625 -9.87182 -0.685742 8
-0.391174 -9.90927 -0.667436 22
0.29591 -9.98867 -0.659303 11
0.99999 -10.058 -0.653177 17
1.15625 -10.0744 -0.545596 42
1.80566 -10.1335 -0.608305 24
2.4751 -10.1827 -0.656015 15
2.64827 -10.1988 -0.587472 19
67.3565 -4.9539 1.88189 33
16.5271 -2.83312 1.47264 7
-4.84931 -8.83923 1.46575 3
2.72216 -10.3705 1.49578 2
-2.27562 14.2507 1.30043 1.5
-2.45796 10.0536 1.16173 1
14.9416 0.263887 1.26404 6
15.0168 0.215161 1.29133 2
9.67951 -2.36656 1.07933 10
12.4129 -2.48448 1.19044 2
3.24912 -5.32635 1.01196 1.5
-4.86756 -8.80658 1.2625 10.75
-4.66833 -9.77079 1.19289 5.8
-3.23727 -10.0217 1.12576 1
-2.49833 -10.1238 1.10783 1
-1.01431 -10.2185 1.16588 2.5
-0.942086 -10.285 1.151 1
1.44554 -10.4519 1.14838 1
2.73194 -10.2566 1.11748 13.6
-2.09272 14.5686 0.931874 5
-2.3651 14.1648 0.794069 9
-2.36237 12.3587 0.748905 4
-2.57138 10.0687 0.922532 8.5
-2.1348 10.1173 0.736766 4
-2.66797 9.34831 0.758524 1
-1.85594 8.48953 0.841284 1
-0.843408 7.07958 0.594558 3
-0.569499 6.6173 0.718798 11.5
-0.206855 6.74673 0.786544 4.33333
-0.307339 6.44393 0.630269 22.3333
-1.6449 5.13661 0.809553 0
-0.866991 2.60895 0.567367 0
0.0550175 2.53048 0.598288 3
-0.773142 2.15881 0.581716 2
0.0148029 2.48392 0.532066 2
-1.12761 1.72719 0.569224 38.875
-0.837687 1.77263 0.576678 25.7391
0.297201 1.77146 0.598237 18.5714
0.743369 1.72307 0.587168 18.1212
0.884361 1.29347 0.572774 13.8
1.89142 1.12873 0.59641 13.0769
2.1061 1.02863 0.5613 15.5
3.39266 1.33073 0.66761 15
3.74618 1.30351 0.620819 13.6667
4.21898 1.26022 0.609856 13.8571
4.67096 1.21997 0.774739 8
5.15954 1.17074 0.640677 12.5
5.7374 1.12405 0.721802 6.5
6.49775 1.05514 0.671547 15
6.6302 1.03777 0.698628 7.5
-0.991695 0.629188 0.528366 7
0.976087 0.821495 0.529735 1
1.01769 0.722418 0.517402 0
1.95169 0.965135 0.577569 8.4
2.14821 0.917425 0.523589 13.1667
7.25592 0.982898 0.626632 13
-0.852808 0.187142 0.528175 0
-0.103365 0.0225502 0.510306 2.5
2.6676 0.250066 0.578684 17.4444
14.4159 0.321668 0.854264 4
16.8076 0.127673 0.651748 35
-0.106715 0.010158 0.508233 32
18.809 -0.0750329 0.863951 4
-5.78852 -0.836648 0.850698 2
-4.38649 -0.955888 0.827206 3
-3.9965 -1.23955 0.6349 40.7778
-3.98211 -1.16975 0.787926 21.5
-4.09216 -1.67684 0.707678 31.1875
3.64767 -1.74391 0.639933 33
4.16595 -1.7116 0.747172 10.25
4.94572 -1.79489 0.583066 1
5.23517 -1.88674 0.648603 0
5.83014 -1.91944 0.778164 22.6667
6.81766 -1.96111 0.604222 9
-4.27413 -2.12577 0.604172 31.5
3.48982 -2.25326 0.692155 47.1905
3.52124 -1.99545 0.875208 8
7.32878 -2.00858 0.783989 5.5
7.85018 -2.04172 0.810609 2
10.605 -2.32154 0.535618 3
11.0842 -2.36022 0.765517 3
11.7854 -2.4251 0.703338 2.5
3.34422 -2.71305 0.676013 21.6
-4.63574 -3.07522 0.568296 11.3333
3.305 -3.18423 0.703228 8.33333
-4.6386 -3.52639 0.64277 43.75
-4.43718 -3.89376 0.650975 19
3.23443 -3.74792 0.619237 19.1429
25.5537 -3.69929 0.594021 26
-4.42338 -4.2826 0.662863 41.6667
3.1697 -4.22534 0.59271 22
-4.47732 -4.52587 0.66682 20.5
3.26015 -4.72616 0.765843 4.2
3.22453 -5.23237 0.704519 9.75
-4.8577 -5.75962 0.549868 6.5
-4.67304 -6.39998 0.835633 1
-4.68718 -6.7332 0.631273 15
-4.70365 -7.15531 0.805681 3
-4.81701 -8.83026 0.799889 28.75
-4.74396 -9.35626 0.606419 21
-4.69217 -9.62028 0.848382 20.75
-4.09324 -9.64706 0.478968 3
-3.34029 -9.7282 0.466145 9
-2.60132 -9.76632 0.452638 12
-2.24894 -9.90589 0.858114 2
-1.53292 -9.9432 0.873656 3
-1.1867 -9.92549 0.854945 18
-0.826904 -9.98151 0.890208 60
2.82432 -9.73413 0.681187 7
-3.42286 -10.0524 0.780864 1
-1.08516 -10.1108 0.602752 22
0.219328 -10.3094 0.930976 1
1.44482 -10.4045 0.789541 1
1.78759 -10.1406 0.453691 2
-2.10729 14.6261 0.603747 10
-2.03598 10.9329 0.504049 3
-1.84841 10.9603 0.546505 3
-1.40488 8.69882 0.329034 1
-1.81308 8.4451 0.56443 21
-1.03634 7.53527 0.241627 0
-0.804048 7.02552 0.491829 19
-0.617134 6.60182 0.314172 22.3333
-0.0246256 6.58365 0.54782 12
-0.462132 6.46528 0.338325 43.3333
-0.177047 5.72203 0.268128 19
-0.772446 5.4122 0.201126 1
-1.11856 4.23979 0.214247 4.5
-0.874561 4.19506 0.169455 6.4
-0.774749 3.98447 0.0374031 31
-0.821318 2.8179 0.238182 14.7
-0.0924351 2.60913 0.0280504 6
-0.789668 2.22944 0.375874 2.2
-0.0132184 2.35928 0.2124 8
0.0318457 2.3674 0.18854 20.3333
-1.02145 1.63832 0.304142 44.4211
-0.832241 1.79526 0.282911 39.9362
0.346046 1.77926 0.320463 50.1282
0.771456 1.70833 0.282813 38.4133
-1.01585 1.44991 0.253378 50.1429
-0.956202 1.23426 0.343496 1.5
0.942244 1.32233 0.264377 29.1429
1.12801 1.16831 0.245405 43.2857
1.8638 1.09906 0.25872 32.4286
-1.50461 0.567594 0.305627 1
-1.19086 0.569452 0.323965 1
-0.977698 0.589893 0.370962 0.4
1.31702 0.603151 0.146975 6.71429
1.64225 0.79716 0.322649 30.1935
2.03982 0.963212 0.507304 17
-1.3748 0.47914 0.311918 4
-0.887991 0.234384 0.410378 2.75
-0.0867582 0.0174978 0.479804 0.1
0.0735456 0.0848101 0.441362 0.416667
1.48546 0.460901 0.218113 1.77778
1.643 0.319083 0.316327 7.02381
2.0837 0.10805 0.482867 34.25
2.8254 0.212238 0.202576 27.8
9.65846 0.38818 0.0856783 3
-1.07729 -0.246192 0.337983 4.83333
-0.96563 -0.321648 0.0323049 0
-0.0945894 0.00889013 0.472937 0.454545
2.15424 -0.00540787 0.463172 17.5
18.064 -0.355858 0.278292 23
-4.00676 -1.37109 0.259043 52.4444
-3.9876 -1.20071 0.00687206 25
3.89759 -1.4793 0.303774 7.4
-4.05731 -1.71392 0.251602 44.3333
3.51028 -1.84072 -0.0121337 7
3.60014 -1.75437 0.268595 44.619
4.19339 -1.50897 -0.00304484 1
6.21001 -1.89321 0.251266 7.8
6.58787 -1.93898 0.47996 9
-4.28104 -2.15634 0.25552 38.125
3.43177 -2.30767 0.233808 42.4167
3.51453 -2.05673 0.4678 56
7.48349 -2.01456 0.425377 5
9.70912 -2.25208 0.161256 19
10.12 -2.25521 0.388025 3.5
12.2233 -2.4386 0.378529 3
3.31264 -2.72663 0.326976 12.875
-4.65221 -3.13121 0.414681 33.5
3.1568 -3.19356 0.285219 17
49.9316 -3.21208 0.052589 51
3.12192 -3.64898 0.288903 43.875
27.7358 -3.64604 0.234231 9
-4.28526 -4.26628 0.142867 14.6
3.14565 -4.15413 0.358671 32.1667
3.246 -4.89378 0.231437 6.75
3.24178 -5.05469 0.385109 8.66667
-4.87589 -5.90382 0.152792 7.66667
3.18183 -5.61412 0.0794824 2.5
3.03246 -6.26233 -0.0346051 8
-4.66509 -6.53819 0.175777 16.5
-4.739 -8.8551 0.00931668 36.5
2.79381 -8.94156 0.00086844 1
-4.71288 -9.04031 0.112529 15.5
2.84002 -9.43994 0.203459 1
-4.24011 -9.58665 0.0670579 48.75
-3.55564 -9.6438 0.0605137 53
-3.37251 -9.66276 0.0745582 46.6667
-2.72254 -9.72294 0.0932608 49.4
-2.08458 -9.77922 0.178301 53
-1.9034 -9.79408 0.159856 37.6667
-1.29664 -9.84878 0.18298 41
-0.671218 -9.9108 0.196837 40.75
-0.255204 -9.93875 0.208946 36.75
0.14493 -9.97734 0.335568 40
2.81973 -9.73027 0.325328 4
0.172585 -9.98318 0.0488618 39
0.800691 -10.0514 0.212233 36
1.39015 -10.0922 0.28412 32
1.59048 -10.1114 0.1874 34.5
2.27637 -10.1784 0.224538 33.8333
2.5465 -10.2146 0.412907 15
-0.696294 6.66226 -0.0151895 3
-0.3881 6.47017 -0.16401 0
-0.392502 5.09658 0.00818998 1
-0.801295 2.80684 -0.0464117 8.2
-0.65722 2.14515 -0.0418851 1
-0.110658 2.25956 -0.0433 3.4
0.0395584 2.10248 -0.00860161 9
-1.00552 1.62166 0.00696045 32
-0.720197 1.72357 -0.037706 12.4286
-0.259994 1.66093 -0.068235 3.41667
0.262692 1.68676 -0.0701401 6.5
0.726491 1.64824 -0.0544679 15.1429
-1.1 1.22375 -0.0679352 8.75
-0.80473 1.42258 -0.0742331 7.9
-0.454828 1.47399 -0.0689557 4
0.366642 1.10266 -0.069037 0.142857
0.853765 1.34974 -0.0540546 15.6667
1.06316 1.18034 -0.053553 41
1.97308 1.08125 -0.0777582 7
-1.56052 0.612716 -0.0684085 7.5
-1.01716 0.577128 -0.0710184 0
-0.665788 0.673635 -0.0708278 1.33333
-0.252755 0.763164 -0.067977 2.47674
0.267948 0.723771 -0.0653116 2.47945
0.751046 0.708741 -0.065317 2.83333
1.20736 0.667745 -0.0817825 5.66667
1.63093 0.550315 -0.0757689 9
-1.00922 0.394828 -0.0769206 0
-0.701428 0.308619 -0.0734901 2.75581
-0.444266 0.505885 -0.0594804 4
0.495462 0.469648 -0.0673351 4
0.802538 0.269687 -0.0757179 1.68889
1.23336 0.272497 -0.0769715 2.17647
1.79372 0.227972 -0.0722 7.71429
2.26615 0.132419 -0.0824137 6.42857
2.8828 0.181669 -0.0363971 39
-1.08203 -0.175185 -0.0821964 0
-0.681829 -0.269121 -0.08714 2.73333
-0.379007 -0.405464 -0.0829099 2.8
0.416993 -0.425836 -0.0876194 3.4
0.739164 -0.266265 -0.0852787 2.23016
1.31374 -0.277384 -0.0890825 6.40909
1.9099 -0.20457 -0.0877488 8.72727
2.22082 -0.212723 -0.0848203 5.85714
3.25859 -0.239585 -0.0767781 2.5
3.59416 -0.115314 -0.0696092 0
-2.6834 -0.883341 -0.0876831 3.66667
-2.1605 -0.760766 -0.0967366 7.25
-1.6802 -0.68258 -0.0951745 9.9
-1.26855 -0.768694 -0.0531803 16.069
-0.675152 -0.637155 -0.0904936 0.54717
-0.20616 -0.625587 -0.0922697 1.90678
0.236339 -0.585811 -0.0918761 2.7381
0.693332 -0.639399 -0.0919351 0.533333
1.22447 -0.708819 -0.0979267 7.2381
1.84629 -0.722804 -0.0950361 7.76471
2.21944 -0.710145 -0.092936 5.23077
3.23335 -0.783803 -0.0823948 2
3.70257 -0.743892 -0.0806218 0
-3.20564 -1.26134 -0.0897745 1.2
-2.76989 -1.22766 -0.0941891 3.25
-2.24129 -1.20649 -0.099113 4.83333
-1.69078 -1.14218 -0.0566067 10
-1.20648 -1.2067 -0.0627421 16.619
-0.792966 -1.32103 -0.10721 8.1
-0.278467 -1.22501 -0.100518 4
0.472868 -1.36653 -0.120146 1
0.811756 -1.18364 -0.10662 5.44444
1.24496 -1.24968 -0.103557 6.5
1.77415 -1.24798 -0.102608 4.40909
2.1538 -1.19245 -0.0994252 4
2.90557 -1.36033 -0.090067 0.5
3.1935 -1.11852 -0.0865788 2.5
3.66096 -1.26266 -0.0853391 0
-4.01972 -1.51758 -0.0132151 9
-2.67638 -1.73704 -0.0970993 0.5
-2.18911 -1.75515 -0.10291 2.66667
-1.75777 -1.71283 -0.106602 4
-1.17725 -1.6713 -0.105905 5.76923
-0.755464 -1.7589 -0.109938 5.11111
-0.23906 -1.71698 -0.108965 4.86667
0.266051 -1.87202 -0.105787 2
0.782104 -1.76959 -0.108054 3.22222
1.30045 -1.78546 -0.109727 4.47059
1.64488 -1.66006 -0.107386 3.83333
2.69896 -1.72823 -0.0976756 3.5
3.42268 -1.81771 -0.0912758 0.333333
3.80164 -1.59703 -0.0748242 7.5
4.29223 -1.53137 -0.0953658 0
5.86713 -1.87043 -0.274992 1
-4.2861 -2.08887 -0.247452 0.5
-2.5412 -2.17076 -0.10277 0
-2.25434 -2.29313 -0.10775 1.5
-1.7489 -2.16223 -0.111406 3.66667
-1.22792 -2.21429 -0.114437 3.6
-0.736274 -2.18154 -0.117581 4
-0.280275 -2.14207 -0.112542 2
0.310567 -2.23291 -0.114695 1.21429
0.794515 -2.20771 -0.114746 2.72222
1.17379 -2.05383 -0.113396 3.375
2.24128 -2.31421 -0.109149 0
2.52238 -1.99166 -0.103136 1
3.35902 -2.25586 -0.0694271 6.09091
-2.22312 -2.72894 -0.109412 0.125
-1.646 -2.49258 -0.113813 3
-1.24438 -2.653 -0.118575 2.33333
-0.705785 -2.62481 -0.120043 2.5
-0.420028 -2.55684 -0.127316 0
0.535999 -2.52315 -0.1207 1
1.84317 -2.6789 -0.115578 0
2.44811 -2.90258 -0.115097 0
2.78966 -2.68612 -0.122229 0.5
3.13216 -2.70657 -0.0671143 27
2.23507 -3.05252 -0.115738 0
3.08985 -3.19466 -0.0780045 20.1667
3.0408 -3.72821 -0.119691 12
2.9968 -4.18563 -0.147611 5.25
3.22505 -4.93518 -0.239579 0
66.8727 -5.85967 -0.209467 110
2.95007 -7.33491 -0.0976455 3
2.71868 -8.39547 -0.156352 18
-4.86907 -8.79889 -0.252004 2
-4.75048 -9.432 -0.0696079 5
-4.66853 -9.55896 -0.0795963 15
-4.22795 -9.59644 -0.187534 20
-3.75748 -9.61847 -0.202983 13
-3.13259 -9.6923 -0.0940868 7
-2.88945 -9.6929 -0.336399 29
-2.28807 -9.76219 -0.231937 24.5
-1.70566 -9.80052 -0.120232 6
-1.23263 -9.8438 -0.259775 64
-0.747621 -9.874 -0.41225 24
-0.18322 -9.92231 -0.302082 19.5
0.369193 -9.9967 -0.180067 2
0.664201 -10.0308 -0.495701 35
1.23211 -10.0902 -0.376609 14.5
1.79906 -10.1637 -0.237612 2
2.54701 -10.2157 -0.268246 7
13.5906 -2.49869 -0.554337 4
-4.60757 -9.57485 -0.715703 7.5
-3.82353 -9.61073 -0.691772 23
-3.08703 -9.67503 -0.678453 16.5
-2.37704 -9.75377 -0.674186 24
-1.67605 -9.81197 -0.673266 28.5
-1.06122 -9.88054 -0.762772 3
-0.906932 -9.87972 -0.595023 26
-0.292101 -9.92826 -0.688894 13
2.80601 -9.87053 -0.632243 2
0.404333 -10.0088 -0.708116 17.5
1.1372 -10.0689 -0.753433 11.6667
1.9409 -10.1709 -0.755813 4
2.13197 -10.1595 -0.605055 26
2.70586 -10.2 -0.773304 5
-4.81232 -8.83655 -1.18548 3
-4.73051 -9.09207 -1.26133 1
25.8649 -0.613516 2.13636 6
-2.24655 14.1339 1.27869 1
-2.26294 13.9139 1.1084 7
-2.63602 10.1043 1.11946 1.5
11.0166 0.637354 1.2117 2
11.6835 0.560487 1.23057 1
25.8725 -0.827551 1.09912 10
9.67734 -2.38988 1.03783 11
42.7658 -2.29717 1.25434 10
3.22264 -5.14706 0.993026 1.5
-4.76474 -8.85926 1.18175 26.6667
-4.72238 -9.09734 1.21647 6.5
2.84314 -9.63657 1.09598 3.33333
-2.86057 -10.0648 1.29641 0
-2.25318 -10.1097 1.08281 1
-0.891163 -10.3057 0.991901 1
0.740547 -10.3395 1.27391 1
1.40081 -10.4324 1.11767 1
-2.16698 14.1577 0.856227 8
-2.30772 13.0051 0.73728 2
-2.49674 12.2504 0.717155 4
-2.41981 12.1293 0.723853 4.5
-2.14986 10.1058 0.971772 6.33333
-2.29687 10.0107 0.882028 18.5
-2.36651 8.50494 0.760458 0
-1.87882 8.43381 0.668575 6
-0.530248 6.55704 0.658795 18
-0.178707 6.6425 0.730564 4.66667
0.0792265 6.8596 0.772403 4
-0.308577 6.39761 0.596172 31.5
-1.55696 5.1647 0.778434 11
-1.29664 4.80161 0.557011 0
-0.789227 2.28555 0.547465 1.6
0.0331925 2.485 0.526341 4
-1.11925 1.73209 0.570345 35.8421
-0.815301 1.7932 0.570298 23.1154
0.313164 1.77709 0.590378 22.2778
0.752049 1.72738 0.589899 16.4545
0.91801 1.21042 0.565595 6.71429
1.91296 1.1323 0.578221 12.6
2.07294 1.28434 0.615783 13.6
3.27827 1.34669 0.658831 15.2
3.77479 1.29972 0.636537 12.625
4.25997 1.25804 0.622143 12.25
4.76203 1.2065 0.674312 12.3333
5.23152 1.16589 0.551549 13
5.73937 1.1199 0.78526 4.66667
6.20108 1.07644 0.710979 8.5
6.7774 1.02647 0.615587 8
8.79546 1.01235 0.704331 2
-1.04181 0.566342 0.532958 12.5
1.02292 0.738668 0.51917 0
1.9493 0.981834 0.582576 13
2.17421 0.947276 0.540382 8.5
7.44374 0.966449 0.981479 9
9.28244 0.908756 0.785764 37.4
12.2259 0.50634 0.784681 5
-0.871727 0.274176 0.522644 19
-0.0943914 0.025893 0.507005 50.3333
1.95934 0.315504 0.502712 0
2.02418 0.189426 0.500917 1
12.675 0.473951 0.895946 3
13.7403 0.37168 0.883707 2.5
15.0085 0.219686 0.756998 7
-0.0940592 0.0152137 0.507912 1
2.16415 -0.292605 0.591699 14.3333
-5.42229 -0.853434 0.895074 0.5
-4.54005 -0.924373 0.763781 7
-4.15453 -0.960615 0.806575 3.5
2.28534 -0.529074 0.615539 10.5
-3.99507 -1.26288 0.6846 30.3333
-4.0569 -1.63863 0.681844 32.5
3.51258 -1.98007 0.7659 46
3.59431 -1.75244 0.642367 41.6667
4.29867 -1.72052 0.661523 14
5.84854 -1.91279 0.647305 36.2857
6.16887 -1.89853 0.922944 3
-4.27029 -2.1081 0.717167 23.2727
3.49606 -2.2082 0.654972 50.619
7.78637 -2.04808 0.644478 3.66667
9.632 -2.43222 0.774139 11
-4.62788 -2.95444 0.615225 0
3.35568 -2.72057 0.656291 19.3
-4.63683 -3.10188 0.609552 15.5
3.26459 -3.19717 0.645669 15.1667
-4.64641 -3.55071 0.622268 5
-4.43297 -3.93111 0.802844 16.5
3.21723 -3.76054 0.632968 20.2857
-4.44811 -4.09489 0.686184 23.8
3.21686 -4.20401 0.602613 20
-4.493 -4.63115 0.707097 11.75
-4.47843 -4.55401 0.678315 16.5
3.26596 -4.79186 0.543686 14.3333
3.22179 -5.07484 0.741539 10
-4.65881 -6.36949 0.713533 10
-4.67839 -6.56189 0.873448 2
-4.81705 -8.83597 0.805824 37.6
-4.69459 -9.00311 0.908453 17
-1.90087 -9.93062 0.867083 1
-1.2329 -9.95547 0.860713 10
0.0916764 -9.94885 0.44373 16
2.79211 -9.74899 0.549156 7
-3.44691 -10.022 0.941244 1
-2.19611 -10.1359 0.812395 1
-0.720247 -10.1344 0.727709 78
-0.487156 -10.1052 0.812541 1
0.264376 -10.1369 0.704926 6.33333
0.815432 -10.163 0.478712 3
1.31273 -10.278 0.536408 2.66667
1.90147 -10.1603 0.454768 4
2.72046 -10.1835 0.476241 11
-1.71229 11.3742 0.216213 12
-1.50768 8.6628 0.410417 1
-0.921942 7.25567 0.121745 11
-0.723558 6.71558 0.174398 21.5
-0.512269 6.5125 0.227507 35
-0.322578 6.31959 0.342373 38
-0.159009 5.71955 0.263801 20.25
-0.987947 4.15016 0.217011 2
-0.886845 4.17524 0.234981 7
-0.789947 2.89491 0.206277 15
-0.78117 2.2246 0.292268 2.4
-0.0192532 2.35702 0.180844 7.5
0.0446732 2.39082 0.288139 20.75
-1.03003 1.65311 0.266627 44
-0.83138 1.79695 0.248316 42.7907
0.34231 1.78395 0.284448 44.125
0.780294 1.71058 0.315067 38.9412
-1.00069 1.40286 0.207584 31.1
-0.939705 1.16054 0.39232 1
0.937004 1.4075 0.293466 34.7778
1.16843 1.17131 0.212475 25.625
1.87138 1.1155 0.29785 42
2.23761 1.04783 0.197854 9
-1.28958 0.576261 0.253373 3.83333
-0.971203 0.581127 0.337115 0.5
0.954739 0.78084 0.23932 0
1.2801 0.60316 0.137554 5.95
1.65766 0.792544 0.348571 35.2143
9.5579 0.633314 0.175269 36.5
-1.35121 0.476437 0.35646 12.6667
-0.876165 0.234036 0.341344 3.41667
-0.0802907 0.0224817 0.468907 0.181818
0.0884779 0.075745 0.433459 0.6
1.46727 0.461489 0.246849 2
1.64485 0.330399 0.308194 4.45946
2.11619 0.0911893 0.494612 5.83333
12.2696 0.122429 0.0604185 1
-1.05273 -0.247909 0.294175 2.5
-0.95982 -0.28091 0.0330609 0
-0.0885845 0.0152261 0.468773 0.521739
2.01184 -0.436731 0.00621611 43
2.21381 -0.304899 0.295504 14.3571
2.10514 -0.481905 0.362938 13
-3.99999 -1.3343 0.296463 51.7
-4.06785 -1.71237 0.281044 40.5833
3.63851 -1.74272 0.276242 43.6667
4.29677 -1.5181 0.37066 0.25
5.84039 -1.8996 0.483762 71
6.27157 -1.89391 0.175783 7
6.96232 -1.96008 0.481156 8
32.9687 -1.63746 0.424693 9
-4.27498 -2.14537 0.257288 36.5556
3.44586 -2.26655 0.272892 46.7273
7.25183 -2.00023 0.106724 6
7.69457 -2.04086 0.376012 5.5
-4.6341 -2.97042 0.439137 17
3.29262 -2.69453 0.320518 17.2727
3.18147 -3.18789 0.280102 22.2857
-4.68177 -3.48034 0.435264 98
3.13772 -3.66109 0.297437 36.1429
-4.19898 -4.29227 0.308988 3.5
3.00874 -4.38898 0.154499 14
3.10943 -4.17152 0.335296 27
-4.21639 -4.48769 0.220014 0
3.24639 -4.82199 0.360756 12
3.21273 -5.29089 0.327209 9
-4.86439 -5.71423 0.278049 15.5
-4.58165 -6.67467 0.285729 7.5
-4.41714 -6.5929 0.202416 2
2.84019 -8.41575 -0.0334607 9
-4.93872 -8.72792 0.405462 2
-4.72769 -9.20562 0.13024 24
-4.60507 -9.55634 0.182468 51
-4.11067 -9.59613 0.162325 50.5
-3.8319 -9.62218 0.191995 49.75
-3.18205 -9.67726 0.200596 48.1667
-2.63825 -9.72353 0.238992 47.5
-2.30189 -9.75783 0.229525 49
-1.71157 -9.80491 0.212611 46.8
-1.13691 -9.86687 0.254594 45
-0.754008 -9.89237 0.207971 39.5
-0.324527 -9.93543 0.22515 37.6
0.235463 -9.9741 0.279426 41
-0.974544 -10.1454 0.435 69
0.39429 -10.0015 0.140503 44.3333
0.948363 -10.0621 0.294143 37
1.10521 -10.0684 0.139676 29
1.75292 -10.1357 0.267919 36
2.44121 -10.2023 0.322714 40
2.54868 -10.1945 0.256251 28
-0.644949 6.56277 0.0384684 9
-0.434184 6.4896 -0.160256 0
-0.728281 4.00593 0.0177919 34
-0.805086 2.76962 -0.0527388 10.2
-0.187172 2.6265 -0.0387575 2
-0.77095 2.32862 -0.053191 0.5
-0.0833188 2.38168 -0.0252181 7.8
0.0342908 2.17791 0.011422 9
-0.695741 1.64356 -0.0672626 7.25
-0.316678 1.65684 -0.0722308 3.4
0.348267 1.66223 -0.0785314 5.33333
0.769337 1.62437 -0.0731771 8.66667
-1.05875 1.2553 -0.0684745 13.625
-0.881884 1.35764 -0.0820811 9
-0.086226 1.0501 -0.068231 0
0.346431 1.21404 -0.0734123 2.09091
0.830177 1.32937 -0.0722565 14.9091
1.20283 1.16785 -0.0457288 43
2.03078 1.09367 -0.0640098 21
-1.5695 0.638188 -0.0790374 9
-1.2219 0.738095 -0.0845191 8
-0.660949 0.674281 -0.0768239 0.911765
-0.254984 0.756016 -0.0726424 2.39506
0.279464 0.732486 -0.0733968 2.66216
0.699819 0.702572 -0.0760275 1.18421
1.21975 0.671593 -0.0758141 5.81818
1.55293 0.576185 -0.0581348 11.3333
9.56603 0.66951 -0.207558 11.5
-1.05348 0.322349 -0.080869 0.25
-0.702278 0.30252 -0.077664 2.61702
-0.468843 0.516906 -0.0508246 3
0.50705 0.510693 -0.0677809 4
0.803175 0.287534 -0.0800485 1.86207
1.20947 0.26197 -0.0797489 3.22222
1.67345 0.277837 -0.0811423 8.16667
2.24572 0.137469 -0.0846183 7
2.75494 0.172731 -0.0789036 5
3.23666 0.13794 -0.074255 3.5
-1.02626 -0.19384 -0.069248 0.4
-0.675428 -0.264389 -0.0919595 2.71545
-0.38659 -0.400364 -0.0880978 2.75
0.424943 -0.422248 -0.0917838 3.44444
0.751866 -0.258269 -0.089047 2.19672
1.26722 -0.289933 -0.0917639 4.4
1.80682 -0.24204 -0.0860534 11.85
2.22248 -0.187603 -0.0815979 10.2308
2.8791 -0.231808 -0.0828565 4.33333
3.34588 -0.426191 -0.0796593 3
3.6495 -0.240449 -0.0733997 0
-2.78587 -0.916726 -0.0944533 4
-2.15143 -0.807997 -0.100454 6.75
-1.72555 -0.751432 -0.0896577 9.72222
-1.22502 -0.754032 -0.0600233 13.4615
-0.662577 -0.63509 -0.0953153 0.74
-0.205688 -0.620737 -0.0948538 1.84496
0.239769 -0.585629 -0.0956412 2.67164
0.708302 -0.657784 -0.0949548 0.902439
1.24261 -0.708261 -0.099536 6.56522
1.85361 -0.753818 -0.0978469 7.70588
2.16986 -0.74173 -0.0955185 6.16667
2.63023 -0.814996 -0.0916368 5
3.28188 -0.88003 -0.0830411 2.33333
-4.00862 -1.42437 -0.0506571 0
-3.30107 -1.22062 -0.0917119 0
-2.7318 -1.23078 -0.0988261 2.25
-2.19514 -1.28383 -0.103414 4
-1.77298 -1.21709 -0.0894975 7.25
-1.26785 -1.17587 -0.0461056 11.5789
-0.724011 -1.30096 -0.110659 8.45455
-0.359231 -1.43858 -0.111985 7.66667
0.504014 -1.35361 -0.105441 1.5
0.816299 -1.22913 -0.109816 6.25
1.24384 -1.21753 -0.106087 5.42857
1.71968 -1.22608 -0.104549 4.47826
2.24546 -1.24065 -0.099462 4.8
2.52786 -1.09585 -0.0951392 5
3.23457 -1.22728 -0.0875022 1.66667
3.76736 -1.16927 -0.081951 0
4.11374 -1.18604 -0.0808432 0
-4.05209 -1.75217 -0.0764892 0
-3.11914 -1.60162 -0.0949949 0
-2.89186 -1.62162 -0.101214 0
-2.1447 -1.78814 -0.109727 4
-1.69351 -1.77009 -0.110045 4
-1.19615 -1.67676 -0.109654 6
-0.803514 -1.89256 -0.11348 3.69231
-0.446315 -1.96982 -0.112909 3
0.30222 -1.94533 -0.108336 2
0.871716 -1.86323 -0.109158 3.375
1.25227 -1.73537 -0.110804 4.29167
1.67984 -1.65182 -0.107963 4.14286
2.16006 -1.68781 -0.105638 3.5
2.92569 -1.96837 -0.0985471 1
3.18888 -1.73957 -0.0857529 0.166667
3.71674 -1.6807 -0.0695235 2.6
4.33534 -1.53548 -0.096215 0
-4.27972 -2.16505 -0.229323 0.5
-1.6709 -2.17044 -0.113476 3.66667
-1.20925 -2.22972 -0.118201 3.4
-0.665291 -2.11898 -0.117276 3.71429
-0.234689 -2.13862 -0.113823 1.52632
0.269219 -2.17188 -0.113035 1.26316
0.72996 -2.14934 -0.113829 2.7
1.26179 -2.18928 -0.113837 3
1.71404 -2.08118 -0.112411 4
2.78372 -2.30408 -0.117321 0.5
3.31934 -2.25639 -0.0864763 5.3
-2.64482 -2.71981 -0.115555 0
-2.33097 -2.82365 -0.11928 0
-0.754383 -2.51865 -0.123517 2.66667
2.33569 -2.70451 -0.114133 0
3.11098 -2.71629 -0.108472 15
-2.31109 -3.2903 -0.121439 0
3.06132 -3.20713 -0.140394 6.5
3.04295 -3.69691 -0.171765 5
-4.37542 -4.08972 -0.311567 2
3.00482 -4.31724 -0.260404 0
3.02409 -4.08672 -0.191416 5.33333
3.24743 -4.90766 -0.333608 0
3.23849 -5.17307 -0.0583071 2
3.04465 -5.75852 -0.111462 11
2.85559 -6.50086 -0.184525 3
-4.79505 -8.80714 -0.413319 27
-4.34415 -9.55638 -0.48118 23
-3.55724 -9.61544 -0.486401 30
-2.82239 -9.71338 -0.49979 41
-2.09549 -9.77829 -0.517978 34
-1.38664 -9.86511 -0.544273 27
1.92385 -10.1343 -0.0863396 8
9.58948 0.479203 -0.515747 1
-4.84535 -8.81659 -0.876074 3.33333
-4.45043 -9.54069 -0.746974 6
-3.6805 -9.60284 -0.733194 26
-2.94961 -9.68687 -0.729497 10
-2.25954 -9.75827 -0.754182 4.5
-1.55609 -9.81484 -0.732785 7.5
-0.796674 -9.8819 -0.669683 12.6667
-0.15975 -9.94985 -0.713607 8.5
0.0251847 -9.9417 -0.608293 21
2.8316 -9.7855 -0.77339 1
0.633149 -10.0171 -0.724121 10.5
1.39009 -10.1193 -0.712445 19.6667
2.11502 -10.1506 -0.680777 12
2.76451 -10.1716 -0.92969 2
-4.76616 -9.3265 -1.10347 1
-4.70736 -9.60825 -1.22012 2
33.2182 1.24134 2.30199 9
36.7684 -1.60782 2.41864 8
32.6737 -4.3287 2.01549 13
-4.75193 -8.88006 1.44433 1
-2.19717 14.2554 1.28969 2
-1.83619 14.2959 1.18008 3
-2.3795 13.108 1.33028 1.5
-2.57841 10.0948 1.19229 1
-2.11241 10.1547 1.18165 1
11.6819 0.580375 1.3637 1
13.8042 0.384996 1.13419 2
14.9928 0.21315 1.18123 4
9.68289 -2.35108 1.14741 9
11.821 -2.43883 1.06055 1
42.7959 -2.15202 1.42774 11
-4.42755 -3.88924 0.976063 1
3.24103 -5.20993 1.01096 1
67.3043 -5.14712 1.4146 41
-4.78616 -8.85395 1.12004 24.4286
2.8151 -9.80371 1.02724 8
-4.65392 -10.0074 0.924078 1
-3.08235 -10.0363 1.10935 1
-2.93433 -10.054 1.27815 0
-2.25005 -10.0927 1.0323 1
-0.899526 -10.2977 1.08424 1
0.664586 -10.3392 1.2434 1
1.43068 -10.4277 1.13616 1
2.73888 -10.2272 1.02158 21
-2.10308 14.5584 0.936525 7.5
-2.38845 12.3376 0.884839 5
-2.70591 10.0996 0.858337 6
-2.23742 10.0513 1.03071 5.66667
-1.79711 8.44514 0.62035 6
-0.852261 7.11428 0.676046 1
-0.482409 6.54025 0.765229 6
-0.126801 6.77793 0.835303 4.83333
-0.362633 6.41691 0.65817 26.3333
-0.848778 2.56664 0.564079 0
-0.79287 2.26613 0.612092 0
0.0620852 2.50352 0.595652 4
-1.1053 1.72347 0.601702 27.9333
-0.816196 1.79643 0.595848 16.8696
0.322593 1.77216 0.601604 19.4688
0.737288 1.72316 0.5874 22.3077
0.907534 1.3023 0.571982 16.6
1.91161 1.15718 0.59949 12.4286
2.05698 1.45007 0.680766 10
3.34238 1.33812 0.667792 15
3.70509 1.30916 0.640723 11.8
4.19173 1.26357 0.614462 13.25
4.83369 1.2008 0.762567 9.4
5.29478 1.16269 0.57764 13.6
5.89484 1.11037 0.882385 1.5
6.38456 1.0616 0.797473 6
6.73525 1.03346 0.596893 11.5
-1.04739 0.570226 0.526711 10.25
0.981436 0.87176 0.539909 0.666667
1.92442 0.992682 0.585861 9.83333
2.12418 0.952391 0.556747 11.8571
6.89314 1.01247 0.590103 10.5
7.18493 0.993231 0.609947 12
9.2614 0.890522 0.89456 33.4
9.81096 0.752107 0.607131 7.66667
10.4949 0.696783 0.654159 5
-0.865868 0.251052 0.527793 1.66667
-0.10772 0.0253 0.509972 3
14.9015 0.288728 0.812933 10
16.8261 0.115352 0.671019 40
-0.108535 0.0156536 0.511622 100.667
1.18358 -0.423406 0.542601 0.727273
-5.60579 -0.841832 0.887742 1
-4.29685 -0.95738 0.802261 6
1.1268 -0.59921 0.531885 0.769231
-3.99145 -1.24884 0.673297 35.0909
-4.03809 -1.60755 0.690727 31.3333
-4.26426 -2.11462 0.704666 21.6429
3.46954 -2.34466 0.688659 25.1667
7.77552 -2.03808 0.63915 4.66667
9.6379 -2.40737 0.882346 12
10.392 -2.27723 0.643499 3
10.5416 -2.31346 0.555931 4
3.35231 -2.69808 0.655746 20.6316
13.6272 -2.59632 0.700461 6
-4.62699 -3.08845 0.557082 15.5
3.32802 -3.19482 0.706832 7.76923
-4.63623 -3.52215 0.692769 27.1667
-4.42919 -3.89937 0.734858 16.7778
3.2431 -3.79534 0.644812 15.1429
23.7227 -3.49607 0.822993 4
25.5722 -3.72791 0.645038 28
-4.39567 -4.22324 0.623423 55
3.21283 -4.2928 0.630904 20.75
-4.48278 -4.54667 0.685196 16.3333
3.29151 -4.53573 0.688687 6.5
3.23499 -5.13635 0.75326 11
-4.8564 -5.7543 0.536006 9.5
-4.67421 -6.68267 0.611172 11.5
-4.68075 -7.12973 0.617775 4
-4.83971 -8.81937 0.87898 35
-4.73402 -9.36821 0.603385 23.5
-4.60452 -9.69572 0.702174 11
-4.09864 -9.65039 0.4514 2
-3.35868 -9.7725 0.438994 5
-2.61269 -9.8006 0.426524 8
-2.13632 -9.92377 0.435295 12
-1.77214 -9.8772 0.61211 6
-0.950577 -9.97021 0.839544 118
2.85613 -9.56766 0.642929 2.66667
-1.27307 -10.1525 0.527739 10.5
0.836622 -10.0495 0.419296 12
1.45661 -10.2769 0.637882 3
1.68339 -10.1905 0.434623 4.5
2.33057 -10.2333 0.453089 3
-2.34397 12.2126 0.606047 5
-1.82275 10.9585 0.600032 9.5
-0.846541 7.0855 0.548555 4
-0.619387 6.59098 0.367965 23
-0.487519 6.48067 0.123701 35
-0.312499 6.40832 0.46817 31.2
-0.163711 5.71468 0.169868 21.3333
-0.760274 5.42158 0.227041 0
-0.851983 4.19606 0.212034 7.83333
-0.810426 2.8491 0.246553 13.3333
-0.0812518 2.602 0.0496864 6
-0.780271 2.20941 0.34986 1.83333
-0.00295693 2.37818 0.267021 7.83333
0.0428524 2.40412 0.258155 22.4
-1.03682 1.6663 0.336052 47.3913
-0.826406 1.79992 0.301721 39.4792
0.310779 1.78622 0.348697 51.7959
0.783938 1.71057 0.316188 37.0172
-1.00431 1.41992 0.213367 31.1429
-0.946484 1.19169 0.399811 1
0.930437 1.34213 0.331945 23
1.11886 1.17411 0.274916 32.5
1.83975 1.1162 0.32196 30
-1.48469 0.56869 0.312711 2
-1.16857 0.63562 0.27226 1.28571
-0.972151 0.61178 0.274946 0.4
1.33073 0.596069 0.193055 5.76
1.65214 0.815323 0.347411 30.2692
2.05352 0.968615 0.517835 12
7.10572 0.644285 0.204464 1
-1.28271 0.438517 0.423363 0
-0.870653 0.219019 0.399649 2.11111
-0.0876633 0.0228499 0.492289 0.142857
0.0848505 0.0780373 0.441231 0.5
1.42383 0.471369 0.203625 2.5
1.62911 0.316531 0.314896 7.20513
2.0789 0.10524 0.477267 27
9.55123 0.412349 0.0173737 24
-1.07417 -0.24291 0.289455 3.6
-0.0886862 0.0134385 0.473568 0.428571
1.3092 -0.40811 0.290753 4.69231
2.15922 -0.00891768 0.463043 6
0.935587 -0.710225 0.0648531 2.125
1.12379 -0.617021 0.356013 1.11765
-3.9991 -1.34394 0.264695 47.1818
-4.05144 -1.71142 0.316122 42
3.76054 -1.66829 0.0459483 16
-4.2784 -2.1832 0.276765 35.25
3.23961 -2.45649 0.0823396 20.5
7.48172 -2.0178 0.479749 6
9.6924 -2.28968 0.206807 24.3333
12.2696 -2.45883 0.434168 3
3.28114 -2.72365 0.246428 15.2
-4.66081 -3.24918 0.383188 5.33333
3.19199 -3.1443 0.280971 17
49.9572 -3.25418 0.0159143 46
3.16092 -3.61384 0.290544 39.7778
27.7452 -3.66911 0.284272 15
-4.31002 -4.23843 0.267813 19.25
3.00688 -4.21887 0.0734316 14.5
3.15893 -4.15084 0.356651 31.8333
3.25818 -4.89744 0.311291 6.75
3.23549 -5.16932 0.282284 7.66667
-4.88378 -5.8774 0.196285 11
3.19788 -5.57162 0.181397 3
3.09683 -6.09271 -0.00482523 1
-4.64705 -6.52231 0.277314 14
-4.72628 -8.86637 0.124426 36
2.81195 -8.64466 0.0818096 0
-4.71995 -9.17033 0.236082 22.6667
-4.68726 -9.55704 0.239586 53
-4.18484 -9.58702 0.200311 50.6
-3.65776 -9.63859 0.194471 51
-3.31114 -9.667 0.243113 49.5
-2.71047 -9.71693 0.246446 46.8
-2.17961 -9.76943 0.165085 53.3333
-1.83666 -9.79738 0.254139 52.3333
-1.22422 -9.85706 0.249661 40.5
-0.602906 -9.90203 0.284276 35.75
-0.269529 -9.93906 0.171625 43.6667
0.123657 -9.95312 0.402433 22
2.82479 -9.72953 0.254866 4
0.226408 -9.98812 0.244998 41.25
0.83029 -10.0454 0.253498 36.25
1.32095 -10.0966 0.175617 35.6667
1.71075 -10.1347 0.210179 37
2.304 -10.1856 0.252726 39.75
2.54633 -10.2105 0.212194 26
-0.724971 6.64685 0.0052712 1
-0.387043 6.44321 -0.0418525 1
-0.252758 5.75611 0.0189009 1
-0.503981 4.97843 0.0406956 15
-0.797156 2.81835 -0.0283813 7.5
-0.093641 2.5505 0.0114032 8
-0.800348 2.31248 0.0209619 0
-0.0436973 2.34241 0.0183099 7
-0.722702 1.68716 -0.0579197 5.66667
-0.268039 1.7013 -0.055777 3.03846
0.305633 1.69632 -0.0600774 6.43478
0.704874 1.63854 -0.050015 12.55
-1.08198 1.2935 -0.048469 15
-0.804226 1.4501 -0.0676743 7
-0.320462 1.17243 -0.0588605 0.8
0.865864 1.42848 -0.0513058 13.7692
1.25824 1.16154 -0.053116 23
1.99559 1.08722 -0.035394 38.5
-1.55603 0.623274 -0.0646558 7.5
-1.02151 0.627519 -0.070029 0
-0.640916 0.695825 -0.0639611 0.9375
-0.229871 0.742693 -0.0600242 2.22059
0.292433 0.758237 -0.0621812 2.5
0.695397 0.669295 -0.0693126 1.275
1.29596 0.709871 -0.0736292 7
1.5913 0.557289 -0.0630198 8.33333
6.84729 0.663856 -0.0514396 1
9.54272 0.578098 -0.0427774 30
-1.05759 0.37747 -0.0655241 0
-0.725035 0.31335 -0.070292 2.4382
-0.4285 0.513624 -0.060055 3.33333
0.492855 0.472062 -0.0612861 4
0.795853 0.293741 -0.0705959 1.95402
1.13689 0.264729 -0.0706538 0.818182
1.68637 0.25428 -0.0765671 8
2.29719 0.164416 -0.0663725 6.6
2.76667 0.113385 -0.0706798 4
3.10688 0.208176 -0.0654566 3
3.57706 0.247919 -0.0598163 0
11.2546 0.256028 0.00353664 46
-1.22201 -0.243085 -0.0758989 0
-0.673109 -0.2742 -0.0867041 2.62016
-0.37611 -0.402608 -0.0830849 2.44828
0.428909 -0.421294 -0.0862947 3.29032
0.734261 -0.267742 -0.0823268 2.39655
1.19338 -0.249695 -0.0748267 4.33333
1.76763 -0.158343 -0.0830414 9.06667
2.28349 -0.238687 -0.0806584 6.07143
2.74758 -0.268243 -0.0758187 4.66667
3.17476 -0.22515 -0.0703084 3.16667
3.64446 -0.119616 -0.0600155 0
17.0684 -0.219873 -0.470661 11
-2.57532 -0.923001 -0.0950108 5
-2.13016 -0.769796 -0.0970508 6.625
-1.75355 -0.772258 -0.0848395 9.07143
-1.1479 -0.745769 -0.0722809 8.4
-0.665952 -0.653794 -0.0878941 0.411765
-0.199551 -0.621754 -0.0914127 1.94872
0.241499 -0.577516 -0.0895329 2.86364
0.711465 -0.651092 -0.0826347 0.6
1.31174 -0.651073 -0.0845412 6.41667
1.84289 -0.791252 -0.0932241 7.28571
2.19957 -0.747214 -0.0897931 5.33333
2.68347 -0.647523 -0.0812594 5
3.19463 -0.6748 -0.0748118 2.5
4.10738 -0.597108 -0.0681564 0
-3.8406 -1.20431 -0.0886315 0.666667
-3.30522 -1.13224 -0.0916325 0
-2.78415 -1.18667 -0.0978501 2.5
-2.19478 -1.20402 -0.103367 4.83333
-1.72842 -1.21661 -0.0758527 8.92308
-1.27754 -1.22259 -0.0630448 14.7273
-0.747191 -1.16142 -0.107065 7.66667
-0.431627 -1.39801 -0.112257 7.66667
0.469336 -1.33657 -0.111724 1.5
0.804316 -1.28811 -0.106069 5.07143
1.16302 -1.19887 -0.104736 7.6
1.75013 -1.35489 -0.101138 3.57143
2.28543 -1.0977 -0.0930983 4.33333
2.84128 -1.31156 -0.0849341 5
-4.00436 -1.56344 -0.0395139 4.66667
-3.30983 -1.52071 -0.0955173 0
-2.59906 -1.71193 -0.105409 0.5
-2.14154 -1.67102 -0.109111 3.5
-1.66613 -1.66419 -0.110693 3.66667
-1.30325 -1.82554 -0.112838 4.1875
-0.120166 -1.52245 -0.110745 5.5
0.296652 -1.54327 -0.108227 2.83333
0.768583 -1.66239 -0.110553 3.33333
1.34669 -1.84873 -0.111291 3.58333
1.6784 -1.66798 -0.10707 3.8
2.10867 -1.74769 -0.103602 4
3.77453 -1.65461 -0.0219213 1
-4.2858 -2.00933 -0.211787 0.5
-2.22735 -2.14063 -0.11496 1.33333
-1.7037 -2.19658 -0.118736 3.5
-1.14945 -2.12125 -0.120177 3.36364
-0.759564 -2.23015 -0.121493 3.21053
-0.347106 -2.29428 -0.121108 1
0.393627 -2.29026 -0.119776 1
0.785431 -2.25741 -0.11825 2.36842
1.19197 -2.13315 -0.115173 3.07692
1.78004 -2.20304 -0.111569 3
2.26005 -2.14821 -0.107642 3
3.37932 -2.33168 -0.107591 2
9.69637 -2.33889 -0.177147 2
13.5857 -2.43196 -0.180889 15
-1.6768 -2.52807 -0.122314 3
-1.26251 -2.68085 -0.124281 1
-0.694699 -2.6249 -0.126662 2.6
-0.427953 -2.57034 -0.126872 0
0.679109 -2.65915 -0.123248 0.5
1.2894 -2.69033 -0.120313 0
1.70294 -2.53048 -0.116821 1.5
3.13324 -2.69794 -0.0887644 23.6667
3.08742 -3.23027 -0.0914119 17
-4.45959 -3.88613 -0.331894 0
3.05095 -3.6866 -0.126136 13.6667
-4.44161 -3.97844 -0.30282 1
2.99462 -4.19846 -0.157077 4.66667
3.03184 -3.98959 -0.114098 21
3.22753 -4.94546 -0.237722 0
3.24703 -5.29066 -0.109851 1
3.00288 -5.77022 -0.149586 16
2.89658 -6.89001 -0.0727485 10
2.75418 -8.16787 -0.188493 5
-4.45884 -9.5925 -0.332283 10
-3.65885 -9.62868 -0.337852 16
-3.03893 -9.68439 -0.584583 30
-2.89987 -9.6728 -0.348489 25
-2.25042 -9.75969 -0.478534 40.5
-1.72036 -9.78712 -0.54258 20
-1.24414 -9.83175 -0.447325 37
-0.761943 -9.87069 -0.42302 25
-0.189679 -9.93642 -0.46164 28
0.383607 -9.97983 -0.433025 26
0.649993 -10.0213 -0.503896 32
1.24127 -10.0746 -0.481386 25.5
1.86156 -10.1617 -0.393211 26
2.63656 -10.1951 -0.374737 16
9.66765 0.744919 -0.528166 1
-4.67138 -6.41891 -0.561175 1
-4.79164 -8.83093 -0.817771 8
-4.71427 -9.2117 -0.895101 5
-4.62873 -9.54491 -0.749672 8.33333
-4.44535 -9.54438 -0.83649 1
-3.74959 -9.61423 -0.754697 21.4
-3.15466 -9.6549 -0.726088 11.5
-2.87139 -9.7163 -0.790099 5
-2.30029 -9.74939 -0.725409 18.5
-1.63846 -9.80548 -0.680701 31
-1.22123 -9.84036 -0.787436 3.5
-0.817285 -9.87799 -0.684845 16
-0.187489 -9.92973 -0.706336 13.5
0.391446 -9.99509 -0.716581 20
0.755656 -10.0219 -0.739353 14
1.29265 -10.0784 -0.70605 30.6667
1.89143 -10.1322 -0.717207 10.6667
2.11293 -10.1327 -0.608395 22
2.68387 -10.1952 -0.769179 6
16.8143 0.136705 -1.32008 2
32.6574 -4.22436 1.50348 11
-1.9797 14.679 1.19687 2
-2.22212 14.2527 1.20551 3
-2.2512 12.6017 1.08312 2
-2.11078 10.1542 1.15759 1
7.35378 0.968322 1.04386 1
9.25196 0.976564 1.07045 19
10.9246 0.634973 1.30481 1
11.4238 0.603768 1.04082 4
12.5497 0.500227 1.01043 2
16.7578 0.21885 1.0089 51
7.81114 -2.05183 1.02203 2
9.73698 -2.25578 1.1223 16
-4.46242 -4.16844 0.99923 0
-4.6991 -6.76045 1.00153 1
-4.72026 -9.21984 1.12107 11.75
-3.45094 -9.98407 1.02578 1
-3.36998 -10.0006 1.12655 1
-2.71699 -10.0669 1.15175 1
-1.12107 -10.2464 1.34676 2
-2.07439 14.6474 0.972043 5
-2.3299 12.493 0.694813 3
-2.53777 10.079 1.03306 1
-2.20977 10.0588 0.959712 10.4
-2.62281 9.17223 0.835992 1
-0.829983 7.07705 0.586426 5
-0.128531 6.79705 0.807689 2.2
0.0423949 6.86352 0.816367 2
-0.296828 6.41781 0.609403 24.25
-1.57405 5.13101 0.798234 2
-0.755377 2.10866 0.584814 1.66667
0.0602524 2.50193 0.544771 4
-1.11913 1.72552 0.586844 30.3077
-0.83418 1.77764 0.589714 21.4167
0.328197 1.77125 0.58239 22.9062
0.758515 1.72494 0.576667 23.9459
0.899118 1.3114 0.563676 17.5714
1.90302 1.13027 0.597744 11.3529
2.12954 1.22528 0.573143 42
3.31636 1.341 0.622517 18
3.7747 1.29964 0.67295 11.8333
4.16654 1.26462 0.643595 10.25
4.75718 1.21021 0.675345 12.3333
5.2393 1.16746 0.696187 9
5.85127 1.11394 0.762037 10.6667
6.20168 1.0773 0.679616 6
6.59749 1.04787 0.619179 13
9.22683 1.02685 0.868617 8
-1.04249 0.551139 0.534641 8
-0.963979 0.5965 0.516977 1
0.990008 0.745834 0.53424 0
1.91696 0.91169 0.569501 10.8333
2.14868 0.978869 0.529788 13.6667
7.01441 0.715917 0.593919 5.5
7.51093 0.925364 0.847737 2
9.29292 0.815359 0.672992 34
-0.864715 0.170662 0.553023 0
-0.0947451 0.0187314 0.504843 1
1.79895 0.501766 0.507049 1
12.9758 0.440443 0.672749 1.5
